VERSION .7
FIELDS x y z rgb
SIZE 4 4 4 4
TYPE F F F F
COUNT 1 1 1 1
WIDTH 1314
HEIGHT 1
VIEWPOINT 0 0 0 1 0 0 0
POINTS 1314
DATA ascii
422.5954 -647.0993 1883.0 0x070C0A
429.1985 -647.0993 1883.0 0x0B130E
433.48715 -643.6628 1873.0 0x0B130E
440.05518 -643.6628 1873.0 0x120C15
449.0076 -647.0993 1883.0 0x131313
455.61066 -647.0993 1883.0 0x0F151A
462.21375 -647.0993 1883.0 0x111816
468.81683 -647.0993 1883.0 0x091710
475.41992 -647.0993 1883.0 0x0F1D16
482.02286 -647.0993 1883.0 0x0C1723
491.48038 -650.87946 1894.0 0x4C4B26
653.55505 -853.9786 2485.0 0x4F3F1F
662.2691 -853.9786 2485.0 0x524F47
670.9832 -853.9786 2485.0 0x55525C
679.69714 -853.9786 2485.0 0x2D2326
683.42474 -847.79285 2467.0 0x29232C
692.07574 -847.79285 2467.0 0x1E1D24
700.72675 -847.79285 2467.0 0x131826
709.37775 -847.79285 2467.0 0x101715
723.2675 -853.9786 2485.0 0x3C383E
731.9816 -853.9786 2485.0 0x494949
740.6957 -853.9786 2485.0 0x4F4F44
743.9815 -847.79285 2467.0 0x565752
758.1239 -853.9786 2485.0 0x4E4C4F
772.3924 -860.16437 2503.0 0x544F51
781.1696 -860.16437 2503.0 0x58514F
789.94684 -860.16437 2503.0 0x5A5351
792.9801 -853.9786 2485.0 0x534E50
807.5013 -860.16437 2503.0 0x483E46
810.40814 -853.9786 2485.0 0x3A3738
819.1223 -853.9786 2485.0 0x4A3329
821.83997 -847.79285 2467.0 0x554546
774.6087 -790.7464 2301.0 0x02020B
777.5754 -785.59155 2286.0 0x02062A
780.4367 -780.43677 2271.0 0x1B3533
793.6077 -785.59155 2286.0 0x1D3250
823.716 -807.2417 2349.0 0x3C3B2E
831.9532 -807.2417 2349.0 0x929C9B
840.1904 -807.2417 2349.0 0x858798
796.49023 -750.53894 2184.0 0x10050D
804.1488 -750.53894 2184.0 0x100C0B
811.8074 -750.53894 2184.0 0x0B070D
819.466 -750.53894 2184.0 0x100C0B
827.1245 -750.53894 2184.0 0x070309
834.7831 -750.53894 2184.0 0x040301
853.2422 -760.16125 2212.0 0x080506
839.15936 -696.929 2028.0 0x5E6565
841.2633 -692.8052 2016.0 0x444F50
843.70404 -689.02496 2005.0 0x303A37
845.64325 -684.9012 1993.0 0x51585F
847.4983 -680.7773 1981.0 0x636C60
849.7004 -676.99713 1970.0 0x5B6461
851.82544 -673.2169 1959.0 0x616B5F
853.43506 -669.0931 1947.0 0x666E67
855.40234 -665.3129 1936.0 0x5F6263
857.73773 -661.8764 1926.0 0x696969
854.61676 -654.316 1904.0 0x6A6A6C
856.76984 -650.87946 1894.0 0x626775
863.4115 -650.87946 1894.0 0x6A6E68
860.4063 -643.6628 1873.0 0x60645E
857.71674 -636.7897 1853.0 0x72716D
859.5506 -633.35315 1843.0 0x6A6A61
861.3145 -629.91656 1833.0 0x69696B
863.00824 -626.4801 1823.0 0x636667
864.63184 -623.0436 1813.0 0x646B69
861.8616 -616.5141 1794.0 0x666C73
863.7972 -613.42126 1785.0 0x707372
865.66974 -610.32837 1776.0 0x6E726C
862.5699 -603.79895 1757.0 0x6B6B6D
859.8312 -597.6132 1739.0 0x696C6B
861.94574 -594.86395 1731.0 0x636B66
-822.2012 -521.7815 1503.0 0xA8B0AB
-816.9306 -521.7815 1503.0 0xA8B1B0
-811.6601 -521.7815 1503.0 0xB7BBB5
-798.87836 -516.92126 1489.0 0xAEB1B0
-793.65686 -516.92126 1489.0 0xB3B7AF
-788.4355 -516.92126 1489.0 0xB5BAB8
-786.89606 -519.3514 1496.0 0xAFB5AC
-781.6501 -519.3514 1496.0 0xB2B6B2
-772.77124 -516.92126 1489.0 0xBABEB6
-767.5497 -516.92126 1489.0 0xAAB0A7
-759.25653 -514.8383 1483.0 0xB6B9B8
-754.0561 -514.8383 1483.0 0xB5BFC0
-748.85565 -514.8383 1483.0 0xADB9B5
-743.65533 -514.8383 1483.0 0xABB4B3
-738.4549 -514.8383 1483.0 0xB4B9B5
-733.2546 -514.8383 1483.0 0xADB0AF
-728.05414 -514.8383 1483.0 0xB4B8B2
-722.85376 -514.8383 1483.0 0xB2B9B7
-717.6534 -514.8383 1483.0 0xB3BABC
-712.453 -514.8383 1483.0 0xB6BBB9
-707.2526 -514.8383 1483.0 0xB5BEBD
-702.05225 -514.8383 1483.0 0xB6BDC4
-696.8518 -514.8383 1483.0 0xBCBEC2
-691.6515 -514.8383 1483.0 0xB6BABB
-686.45105 -514.8383 1483.0 0xB8C0C2
-681.25073 -514.8383 1483.0 0xB4BEB6
-676.0503 -514.8383 1483.0 0xBCC1BD
-670.84985 -514.8383 1483.0 0xB3B8B4
-665.64954 -514.8383 1483.0 0xBDBEC0
-660.4491 -514.8383 1483.0 0xB5B6BA
-655.2488 -514.8383 1483.0 0xBDBDBD
-650.04834 -514.8383 1483.0 0xAFB6B6
-644.84796 -514.8383 1483.0 0xBAC1BF
-639.6476 -514.8383 1483.0 0xB6BBB7
-634.4472 -514.8383 1483.0 0xBDC2C0
-629.2468 -514.8383 1483.0 0xB3BCB2
-624.04645 -514.8383 1483.0 0xB8BDBB
-618.846 -514.8383 1483.0 0xC0C4BC
-613.6457 -514.8383 1483.0 0xB9C0BE
-610.9069 -516.92126 1489.0 0xC1C5C6
-603.2449 -514.8383 1483.0 0xB9BCBB
-598.0445 -514.8383 1483.0 0xBDC2BE
-592.84406 -514.8383 1483.0 0xBCC5C4
-587.64374 -514.8383 1483.0 0xBAC0B7
-582.4433 -514.8383 1483.0 0xB9BDB7
-574.90753 -512.7553 1477.0 0xC2C4CA
-569.72815 -512.7553 1477.0 0xBDC1C4
-564.5488 -512.7553 1477.0 0xBCBFC0
-559.3695 -512.7553 1477.0 0xC4C4C4
-554.19006 -512.7553 1477.0 0xC1C1C3
-551.241 -514.8383 1483.0 0xBDC3BC
-543.8314 -512.7553 1477.0 0xB7C1C7
-538.65204 -512.7553 1477.0 0xB9C3BB
-533.4727 -512.7553 1477.0 0xC1C4C3
-528.29333 -512.7553 1477.0 0xC0C4BE
-523.114 -512.7553 1477.0 0xBDC5BE
-520.0387 -514.8383 1483.0 0xBDC5C7
-514.83826 -514.8383 1483.0 0xB9C2C1
-507.57602 -512.7553 1477.0 0xC4C7C6
-502.39664 -512.7553 1477.0 0xC0C1C3
-499.23715 -514.8383 1483.0 0xC3C5C9
-492.03796 -512.7553 1477.0 0xC4C7C6
-486.8586 -512.7553 1477.0 0xC9CBCA
-481.6793 -512.7553 1477.0 0xC3C4C8
-476.49988 -512.7553 1477.0 0xBFC4C2
-471.32056 -512.7553 1477.0 0xC2C9CB
-463.932 -510.32526 1470.0 0xC2C6C9
-458.7772 -510.32526 1470.0 0xC3C5C9
-455.78253 -512.7553 1477.0 0xC4C6CC
-450.60315 -512.7553 1477.0 0xC9CBCA
-447.2333 -514.8383 1483.0 0xC6C4C7
-442.0329 -514.8383 1483.0 0xC7C6CB
-436.83246 -514.8383 1483.0 0xC7C8CA
-429.8858 -512.7553 1477.0 0xC9CBC6
-424.70642 -512.7553 1477.0 0xC9CCCB
-419.5271 -512.7553 1477.0 0xCBCDD1
-414.34775 -512.7553 1477.0 0xC6C8C7
-409.1684 -512.7553 1477.0 0xCBCBCB
-403.98907 -512.7553 1477.0 0xCED1D0
-398.8097 -512.7553 1477.0 0xC6CDCD
-393.63037 -512.7553 1477.0 0xC6CDCB
-388.45102 -512.7553 1477.0 0xC8CFCD
-381.45517 -510.32526 1470.0 0xC5CBD0
-376.3004 -510.32526 1470.0 0xC9D1D3
-372.91296 -512.7553 1477.0 0xCFD6D4
-367.73364 -512.7553 1477.0 0xCDD2D0
-362.5543 -512.7553 1477.0 0xCED1D0
-355.68118 -510.32526 1470.0 0xCED2CE
-350.5264 -510.32526 1470.0 0xCCCFCE
-343.9619 -508.24225 1464.0 0xD4D6D5
-338.8282 -508.24225 1464.0 0xCCCDD1
-335.062 -510.32526 1470.0 0xCCCECD
-328.56064 -508.24225 1464.0 0xD3D2D0
-324.7524 -510.32526 1470.0 0xD0D0D2
-319.59763 -510.32526 1470.0 0xCACCC9
-314.44284 -510.32526 1470.0 0xD0D4CC
-309.28802 -510.32526 1470.0 0xCAD1CF
-304.13318 -510.32526 1470.0 0xD2D5DD
-298.97842 -510.32526 1470.0 0xCBCECF
-292.62433 -508.24225 1464.0 0xCCCFCE
-287.49057 -508.24225 1464.0 0xCFD3CF
-282.3568 -508.24225 1464.0 0xCFD1CE
-276.08685 -506.15933 1458.0 0xCACED1
-270.97418 -506.15933 1458.0 0xCED3D1
-266.95554 -508.24225 1464.0 0xCFD3D6
-260.74875 -506.15933 1458.0 0xCDCFCE
-255.63602 -506.15933 1458.0 0xCDD1D4
-250.52325 -506.15933 1458.0 0xCBD4D1
-245.41058 -506.15933 1458.0 0xCAD1CF
-240.29784 -506.15933 1458.0 0xCCCECB
-235.18515 -506.15933 1458.0 0xD0D4D7
-230.0724 -506.15933 1458.0 0xC8CFD1
-224.95966 -506.15933 1458.0 0xCFD4D2
-219.84698 -506.15933 1458.0 0xD0D1D5
-213.85057 -504.07632 1452.0 0xC9CACC
-208.75891 -504.07632 1452.0 0xD5D7D6
-202.68533 -501.64624 1445.0 0xCED2D5
-196.79764 -499.56326 1439.0 0xCED3D1
-191.75156 -499.56326 1439.0 0xC8CFCF
-187.48392 -501.64624 1445.0 0xCCD3D3
-183.3005 -504.07632 1452.0 0xC8CFD1
-177.34967 -501.64624 1445.0 0xCED3D1
-172.28252 -501.64624 1445.0 0xCDCFCC
-167.21542 -501.64624 1445.0 0xCCCFC7
-161.47499 -499.56326 1439.0 0xD2D3D5
-157.08116 -501.64624 1445.0 0xCBCDCC
-152.014 -501.64624 1445.0 0xCACCC9
-146.94685 -501.64624 1445.0 0xCBCDCC
-141.29062 -499.56326 1439.0 0xCACCD2
-136.24452 -499.56326 1439.0 0xC7CFCA
-131.19846 -499.56326 1439.0 0xD1D2D4
-126.152336 -499.56326 1439.0 0xC8C9CD
-121.106224 -499.56326 1439.0 0xC7C9CD
-116.06016 -499.56326 1439.0 0xC7CBCE
-111.01405 -499.56326 1439.0 0xC4CBCD
-105.96799 -499.56326 1439.0 0xC4C9C7
-100.92187 -499.56326 1439.0 0xC0C2C6
-95.875755 -499.56326 1439.0 0xCBCECD
-90.82969 -499.56326 1439.0 0xBEC6CA
-85.783585 -499.56326 1439.0 0xC1C5CA
-80.40088 -497.48032 1433.0 0xC0C3C2
-75.3758 -497.48032 1433.0 0xC2C6C9
-70.35073 -497.48032 1433.0 0xC3C5CD
-65.32571 -497.48032 1433.0 0xC3C3C3
-60.300632 -497.48032 1433.0 0xBFC2C3
-55.275608 -497.48032 1433.0 0xC3C9D0
-50.250534 -497.48032 1433.0 0xBAC0C5
-45.036102 -495.39734 1427.0 0xC3C7CA
-40.032116 -495.39734 1427.0 0xBAC2CD
-35.028084 -495.39734 1427.0 0x8395A8
-30.024101 -495.39734 1427.0 0x4E5459
-42.641068 -844.2932 2432.0 0x4C4F4E
-33.87437 -838.3915 2415.0 0x555450
-25.584658 -844.2932 2432.0 0x475149
-17.056412 -844.2932 2432.0 0x4C504A
-8.528246 -844.2932 2432.0 0x464C43
0.0 -844.2932 2432.0 0x5B5D53
8.468633 -838.3915 2415.0 0x5C5F4C
17.056492 -844.2932 2432.0 0x605E61
25.584576 -844.2932 2432.0 0x595A55
34.112823 -844.2932 2432.0 0x535751
42.641068 -844.2932 2432.0 0x4F584C
51.169315 -844.2932 2432.0 0x424E4A
59.69756 -844.2932 2432.0 0x454C3C
68.730606 -850.54205 2450.0 0x3B403E
77.32197 -850.54205 2450.0 0x333237
86.50947 -856.4438 2467.0 0x0F1208
94.50471 -850.54205 2450.0 0x181818
99.519264 -821.03345 2365.0 0x1D1D1D
104.89487 -798.8152 2301.0 0x565236
112.96374 -798.8152 2301.0 0x504F2D
120.24361 -793.6078 2286.0 0x626249
128.25987 -793.6078 2286.0 0x4D4C41
134.48775 -783.193 2256.0 0x3E3B12
141.45187 -777.9856 2241.0 0x6C6248
149.31033 -777.9856 2241.0 0x7C7854
157.16881 -777.9856 2241.0 0x736B55
165.02728 -777.9856 2241.0 0x797154
172.88574 -777.9856 2241.0 0x6B694C
179.53427 -772.7782 2226.0 0x636048
187.34013 -772.7782 2226.0 0x645946
195.14601 -772.7782 2226.0 0x5C5951
202.95189 -772.7782 2226.0 0x63635A
210.75775 -772.7782 2226.0 0x524F35
218.56348 -772.7782 2226.0 0x473E2F
226.36932 -772.7782 2226.0 0x504C30
232.70241 -767.91797 2212.0 0x53553E
241.98108 -772.7782 2226.0 0x030703
258.20294 -798.8152 2301.0 0x080600
266.27167 -798.8152 2301.0 0x3B3221
272.55212 -793.6078 2286.0 0x383B18
278.72742 -788.4004 2271.0 0x444A23
284.7975 -783.193 2256.0 0x666004
290.76236 -777.9856 2241.0 0x837A60
298.62067 -777.9856 2241.0 0x56583C
304.42776 -772.7782 2226.0 0x6E652A
306.3424 -758.19745 2184.0 0x4F5533
304.2244 -734.5906 2116.0 0x020300
309.72992 -730.0775 2103.0 0x0D0710
315.14407 -725.56445 2090.0 0x090607
322.47305 -725.56445 2090.0 0x07060D
327.90842 -721.3985 2078.0 0x040907
335.19528 -721.3985 2078.0 0x070707
342.48218 -721.3985 2078.0 0x090909
349.76892 -721.3985 2078.0 0x08070E
357.0558 -721.3985 2078.0 0x080B01
366.4467 -725.56445 2090.0 0x040404
373.77563 -725.56445 2090.0 0x291B0E
398.2452 -758.19745 2184.0 0x645C3D
411.10754 -767.91797 2212.0 0x5D6138
421.51535 -772.7782 2226.0 0x4C5118
429.32123 -772.7782 2226.0 0x343A00
437.12708 -772.7782 2226.0 0x353300
444.93298 -772.7782 2226.0 0x483D00
452.73865 -772.7782 2226.0 0x564F16
460.54456 -772.7782 2226.0 0x655C38
468.3504 -772.7782 2226.0 0x5A5945
476.15628 -772.7782 2226.0 0x2A381F
413.95508 -660.9927 1904.0 0x031010
418.42242 -657.52106 1894.0 0x010B01
425.06412 -657.52106 1894.0 0x0A0A0A
429.1985 -653.70233 1883.0 0x0A1015
435.80157 -653.70233 1883.0 0x0A1015
440.05518 -650.2307 1873.0 0x151223
446.62305 -650.2307 1873.0 0x13160C
455.61066 -653.70233 1883.0 0x131313
462.21375 -653.70233 1883.0 0x171214
468.81683 -653.70233 1883.0 0x07060D
475.41992 -653.70233 1883.0 0x161616
482.02286 -653.70233 1883.0 0x0E1321
491.48038 -657.52106 1894.0 0x34372F
653.55505 -862.6926 2485.0 0x231E20
662.2691 -862.6926 2485.0 0x5A554B
670.9832 -862.6926 2485.0 0x58514F
679.69714 -862.6926 2485.0 0x4E4E47
683.42474 -856.4438 2467.0 0x4B4B39
692.07574 -856.4438 2467.0 0x403E38
700.72675 -856.4438 2467.0 0x5B564C
709.37775 -856.4438 2467.0 0x504846
718.0285 -856.4438 2467.0 0x4B474D
726.6795 -856.4438 2467.0 0x525158
735.3305 -856.4438 2467.0 0x555450
743.9815 -856.4438 2467.0 0x54504D
752.63245 -856.4438 2467.0 0x574E58
766.8378 -862.6926 2485.0 0x58524B
775.55194 -862.6926 2485.0 0x58514F
784.26605 -862.6926 2485.0 0x554E50
792.9801 -862.6926 2485.0 0x50454D
801.6942 -862.6926 2485.0 0x493D41
810.40814 -862.6926 2485.0 0x312F3B
813.18896 -856.4438 2467.0 0x353535
816.1767 -850.54205 2450.0 0x1F1A1C
774.6087 -798.8152 2301.0 0x080310
777.5754 -793.6078 2286.0 0x0D0710
780.4367 -788.4004 2271.0 0x535152
788.4003 -788.4004 2271.0 0x5D5A6B
812.4947 -804.3698 2317.0 0x4A493C
826.28644 -809.9243 2333.0 0x615C5E
834.7831 -758.19745 2184.0 0x000002
842.44165 -758.19745 2184.0 0x0C060F
868.75574 -767.91797 2212.0 0x03030E
822.6115 -696.05585 2005.0 0x3D4744
839.15936 -704.0405 2028.0 0x505755
841.2633 -699.8746 2016.0 0x44484B
843.70404 -696.05585 2005.0 0x32382F
845.64325 -691.8899 1993.0 0x585F66
847.4983 -687.724 1981.0 0x616964
854.4449 -687.724 1981.0 0x666B60
856.6086 -683.9053 1970.0 0x656A5F
853.43506 -675.9206 1947.0 0x656867
855.40234 -672.1018 1936.0 0x66656C
857.73773 -668.6302 1926.0 0x6A6869
854.61676 -660.9927 1904.0 0x6D6D6F
861.29346 -660.9927 1904.0 0x62646C
863.4115 -657.52106 1894.0 0x666465
860.4063 -650.2307 1873.0 0x6C6B67
857.71674 -643.28754 1853.0 0x666465
859.5506 -639.8159 1843.0 0x6D6D6F
861.3145 -636.3443 1833.0 0x696C6B
863.00824 -632.87274 1823.0 0x6F7676
864.63184 -629.4011 1813.0 0x676B65
861.8616 -622.80505 1794.0 0x6A6778
863.7972 -619.68066 1785.0 0x696960
865.66974 -616.5562 1776.0 0x6F715E
862.5699 -609.96014 1757.0 0x696864
864.2812 -606.8357 1748.0 0x676B65
865.9293 -603.71124 1739.0 0x696E61
-822.2012 -527.052 1503.0 0xA8AFAD
-813.1259 -524.59735 1496.0 0xA7AEAE
-807.87994 -524.59735 1496.0 0xB0B8B3
-798.87836 -522.1427 1489.0 0xB0B6AF
-790.4588 -520.0387 1483.0 0xBAC0B9
-785.2584 -520.0387 1483.0 0xB4B9B5
-780.05804 -520.0387 1483.0 0xB0B3B2
-777.9926 -522.1427 1489.0 0xB0B5B3
-769.6573 -520.0387 1483.0 0xB0B6AF
-764.45685 -520.0387 1483.0 0xBBBEB4
-756.1847 -517.9347 1477.0 0xB2B2B0
-751.0053 -517.9347 1477.0 0xB6B6B6
-742.2912 -515.48 1470.0 0xB4B6B3
-740.6466 -517.9347 1477.0 0xAFB5AE
-735.4673 -517.9347 1477.0 0xB4B9B5
-730.28796 -517.9347 1477.0 0xB3B6B5
-725.1086 -517.9347 1477.0 0xB6BAB4
-716.5172 -515.48 1470.0 0xB1B4B3
-711.3624 -515.48 1470.0 0xB6BCB3
-709.57056 -517.9347 1477.0 0xBABFBB
-701.0528 -515.48 1470.0 0xB4B7B6
-699.21185 -517.9347 1477.0 0xB1B8BA
-690.7432 -515.48 1470.0 0xB4BDBC
-685.58844 -515.48 1470.0 0xB2B9BB
-683.6738 -517.9347 1477.0 0xB3BABC
-678.4945 -517.9347 1477.0 0xB9BBBA
-673.31506 -517.9347 1477.0 0xB8BBBA
-668.1357 -517.9347 1477.0 0xB3BAB8
-662.95636 -517.9347 1477.0 0xB8B7BE
-657.77704 -517.9347 1477.0 0xBBBDC3
-652.5977 -517.9347 1477.0 0xBDC1C4
-647.41833 -517.9347 1477.0 0xB9BBC1
-642.23895 -517.9347 1477.0 0xBBBDBC
-637.05963 -517.9347 1477.0 0xB8BCB8
-628.8856 -515.48 1470.0 0xC0C4BC
-623.73083 -515.48 1470.0 0xBABFBB
-616.0512 -513.376 1464.0 0xBBBEBD
-610.9174 -513.376 1464.0 0xB7BBBE
-608.2664 -515.48 1470.0 0xB4BEBB
-605.9836 -517.9347 1477.0 0xBFC8C5
-597.95685 -515.48 1470.0 0xB9BDBE
-592.802 -515.48 1470.0 0xB9C0BE
-590.4455 -517.9347 1477.0 0xB6C0BD
-582.49243 -515.48 1470.0 0xBBC3BC
-577.33765 -515.48 1470.0 0xC0C0C2
-572.18286 -515.48 1470.0 0xB9BDC2
-564.7136 -513.376 1464.0 0xBCBFBE
-559.57983 -513.376 1464.0 0xBEBEBE
-554.4461 -513.376 1464.0 0xBFC2C1
-551.5636 -515.48 1470.0 0xC4C7C8
-549.0108 -517.9347 1477.0 0xC0C3BB
-541.254 -515.48 1470.0 0xC0C2C6
-536.0992 -515.48 1470.0 0xC2C6C2
-530.9444 -515.48 1470.0 0xC0C3C2
-525.7896 -515.48 1470.0 0xC1C3C0
-520.6348 -515.48 1470.0 0xBEC2C5
-513.37604 -513.376 1464.0 0xC2C4CA
-508.24225 -513.376 1464.0 0xC4C7C6
-503.1085 -513.376 1464.0 0xC4C8C9
-500.01562 -515.48 1470.0 0xCACACA
-497.21732 -517.9347 1477.0 0xC1C3C7
-492.03796 -517.9347 1477.0 0xC7CCC8
-486.8586 -517.9347 1477.0 0xBCC5C2
-479.39642 -515.48 1470.0 0xC8CAC9
-474.2416 -515.48 1470.0 0xC3C1C2
-467.17218 -513.376 1464.0 0xC3C5C2
-462.03842 -513.376 1464.0 0xC9CCCB
-456.90463 -513.376 1464.0 0xCBCFD2
-451.7709 -513.376 1464.0 0xC5C9CA
-446.63712 -513.376 1464.0 0xC3C6C7
-441.5034 -513.376 1464.0 0xD1D3D7
-436.36963 -513.376 1464.0 0xBFC7C9
-431.23584 -513.376 1464.0 0xC5CAC8
-424.35577 -511.272 1458.0 0xC4C8C2
-419.24304 -511.272 1458.0 0xC6C9C8
-414.13037 -511.272 1458.0 0xCACFCB
-410.7008 -513.376 1464.0 0xC8CFD1
-405.56705 -513.376 1464.0 0xC4CDCC
-398.79218 -511.272 1458.0 0xC5CCCC
-393.67944 -511.272 1458.0 0xC1CAC9
-388.56677 -511.272 1458.0 0xCDD2D0
-385.032 -513.376 1464.0 0xC7C8CA
-378.34128 -511.272 1458.0 0xD0D1D3
-374.7645 -513.376 1464.0 0xCACCC9
-369.63074 -513.376 1464.0 0xCBCDCA
-363.00317 -511.272 1458.0 0xCCCECD
-359.36322 -513.376 1464.0 0xCCCCCE
-352.77768 -511.272 1458.0 0xCCCECD
-347.66498 -511.272 1458.0 0xD2D4D3
-342.55225 -511.272 1458.0 0xC9CDD0
-336.0509 -509.168 1452.0 0xD1D5D6
-330.9592 -509.168 1452.0 0xC8CFD1
-325.86752 -509.168 1452.0 0xC9CECC
-320.77588 -509.168 1452.0 0xD6D9D8
-316.98865 -511.272 1458.0 0xC8CFCD
-311.87595 -511.272 1458.0 0xCDD4D2
-306.7632 -511.272 1458.0 0xCDD4D6
-301.65045 -511.272 1458.0 0xCBCFD2
-296.53778 -511.272 1458.0 0xCDCFD3
-291.42505 -511.272 1458.0 0xD0CFD4
-285.13412 -509.168 1452.0 0xD1D1CF
-280.04242 -509.168 1452.0 0xCDD2D0
-274.9507 -509.168 1452.0 0xCDD1D2
-269.85904 -509.168 1452.0 0xD1D6D4
-264.76736 -509.168 1452.0 0xCDCFD3
-258.42383 -506.71338 1445.0 0xCDCFCE
-253.35667 -506.71338 1445.0 0xD4D4D4
-248.28952 -506.71338 1445.0 0xCFD2CA
-243.22243 -506.71338 1445.0 0xCCCECD
-238.15526 -506.71338 1445.0 0xCCCFCE
-233.08817 -506.71338 1445.0 0xCED2D7
-228.02101 -506.71338 1445.0 0xC8CED3
-224.0339 -509.168 1452.0 0xD2D5D6
-218.94225 -509.168 1452.0 0xCDCFD7
-212.8196 -506.71338 1445.0 0xCED2CE
-207.75249 -506.71338 1445.0 0xC9D0CE
-201.84373 -504.60938 1439.0 0xD0D7D9
-196.79764 -504.60938 1439.0 0xCDD2D0
-191.75156 -504.60938 1439.0 0xCDCDCD
-186.70546 -504.60938 1439.0 0xD1CFD2
-181.65938 -504.60938 1439.0 0xD5D7D6
-176.61327 -504.60938 1439.0 0xCBCECD
-171.56717 -504.60938 1439.0 0xCDCFCC
-166.52109 -504.60938 1439.0 0xCBCDCC
-161.47499 -504.60938 1439.0 0xCECFD3
-156.42891 -504.60938 1439.0 0xCBCBCB
-150.7516 -502.50537 1433.0 0xC9CCCB
-145.72653 -502.50537 1433.0 0xD1D4D3
-140.7015 -502.50537 1433.0 0xCCCED2
-135.67644 -502.50537 1433.0 0xC8CDCB
-130.65141 -502.50537 1433.0 0xC7CBCE
-125.626335 -502.50537 1433.0 0xC8CDCB
-120.601265 -502.50537 1433.0 0xC9CDCE
-115.57625 -502.50537 1433.0 0xCBCECF
-110.55116 -502.50537 1433.0 0xC8C9CB
-105.526146 -502.50537 1433.0 0xC4C7C8
-100.08027 -500.40137 1427.0 0xC6CACB
-95.07624 -500.40137 1427.0 0xBEC5C5
-90.07226 -500.40137 1427.0 0xC3C7C8
-85.068214 -500.40137 1427.0 0xC2C4CA
-80.06423 -500.40137 1427.0 0xC0C5C3
-75.0602 -500.40137 1427.0 0xC3C6C7
-70.05617 -500.40137 1427.0 0xC2C4CA
-65.052185 -500.40137 1427.0 0xC4C7C6
-60.048153 -500.40137 1427.0 0xC5C9CA
-55.044167 -500.40137 1427.0 0xBDC5C9
-50.040134 -500.40137 1427.0 0xC1C5C8
-44.84674 -498.29736 1421.0 0xB8BFC1
-39.8638 -498.29736 1421.0 0xC4CACF
-34.880806 -498.29736 1421.0 0xADB3BA
-29.89786 -498.29736 1421.0 0x5A606E
-42.044933 -840.8987 2398.0 0x515856
-33.635918 -840.8987 2398.0 0x49504E
-25.584658 -852.82135 2432.0 0x555D56
-17.056412 -852.82135 2432.0 0x595C5B
-8.528246 -852.82135 2432.0 0x5A5955
0.0 -852.82135 2432.0 0x595B51
8.528246 -852.82135 2432.0 0x555651
17.056492 -852.82135 2432.0 0x5F5F5F
25.584576 -852.82135 2432.0 0x545253
34.112823 -852.82135 2432.0 0x53544F
42.641068 -852.82135 2432.0 0x4C504A
51.548035 -859.13336 2450.0 0x404543
60.1394 -859.13336 2450.0 0x31372E
69.71247 -871.40674 2485.0 0x181413
78.42657 -871.40674 2485.0 0x100C0B
87.77187 -877.71875 2503.0 0x0B130E
96.549095 -877.71875 2503.0 0x121B0F
96.82614 -806.88403 2301.0 0x34372F
104.21107 -801.624 2286.0 0x776E58
112.22733 -801.624 2286.0 0x867D6E
120.24361 -801.624 2286.0 0x918973
128.25987 -801.624 2286.0 0x8B846B
135.38194 -796.3641 2271.0 0x556164
141.45187 -785.84406 2241.0 0x4C4E30
149.31033 -785.84406 2241.0 0x72674B
157.16881 -785.84406 2241.0 0x6E674C
165.02728 -785.84406 2241.0 0x706653
171.72855 -780.58405 2226.0 0x5F614E
179.53427 -780.58405 2226.0 0x5B5B42
187.34013 -780.58405 2226.0 0x555346
195.14601 -780.58405 2226.0 0x565145
202.95189 -780.58405 2226.0 0x463B38
210.75775 -780.58405 2226.0 0x342D08
218.56348 -780.58405 2226.0 0x42392A
226.36932 -780.58405 2226.0 0x4E421A
234.1752 -780.58405 2226.0 0x534A2B
245.24228 -791.10406 2256.0 0x161113
259.99838 -812.4947 2317.0 0x060302
266.27167 -806.88403 2301.0 0x3F3F2D
274.34055 -806.88403 2301.0 0x4E5231
280.56842 -801.624 2286.0 0x4E5444
286.6911 -796.3641 2271.0 0x282700
292.70856 -791.10406 2256.0 0x605128
298.62067 -785.84406 2241.0 0x8A815D
306.47916 -785.84406 2241.0 0x6D6523
304.3787 -760.94666 2170.0 0x484F23
304.2244 -742.0107 2116.0 0x050E02
309.72992 -737.452 2103.0 0x060A0F
315.14407 -732.8934 2090.0 0x030900
322.47305 -732.8934 2090.0 0x07060D
327.90842 -728.68536 2078.0 0x080808
335.19528 -728.68536 2078.0 0x0B0901
342.48218 -728.68536 2078.0 0x0B0809
349.76892 -728.68536 2078.0 0x040613
357.0558 -728.68536 2078.0 0x060B09
364.34268 -728.68536 2078.0 0x0C0C0C
371.62955 -728.68536 2078.0 0x2E230E
400.79803 -770.7654 2198.0 0x514A13
411.10754 -775.6747 2212.0 0x686B3E
421.51535 -780.58405 2226.0 0x606336
429.32123 -780.58405 2226.0 0x69683C
440.07266 -785.84406 2241.0 0x737649
444.93298 -780.58405 2226.0 0x636142
452.73865 -780.58405 2226.0 0x5D5525
460.54456 -780.58405 2226.0 0x6D653C
468.3504 -780.58405 2226.0 0x5B5B3E
479.36487 -785.84406 2241.0 0x272F1C
416.3466 -671.5267 1915.0 0x000707
418.42242 -664.16266 1894.0 0x040D00
422.5954 -660.30536 1883.0 0x0C0F05
429.1985 -660.30536 1883.0 0x0E0D14
435.80157 -660.30536 1883.0 0x0A1015
440.05518 -656.7987 1873.0 0x0D1028
446.62305 -656.7987 1873.0 0x11140A
455.61066 -660.30536 1883.0 0x14131A
462.21375 -660.30536 1883.0 0x161616
468.81683 -660.30536 1883.0 0x131313
475.41992 -660.30536 1883.0 0x1A1A1A
484.8387 -664.16266 1894.0 0x151223
491.48038 -664.16266 1894.0 0x312F29
498.122 -664.16266 1894.0 0x1E1D24
657.472 -865.0947 2467.0 0x414E43
666.123 -865.0947 2467.0 0x40434D
674.7738 -865.0947 2467.0 0x534F4C
678.71533 -859.13336 2450.0 0x505047
692.07574 -865.0947 2467.0 0x494741
695.898 -859.13336 2450.0 0x534C4A
709.37775 -865.0947 2467.0 0x534E50
718.0285 -865.0947 2467.0 0x525053
726.6795 -865.0947 2467.0 0x4F5157
735.3305 -865.0947 2467.0 0x4D483E
738.8547 -859.13336 2450.0 0x605250
747.4461 -859.13336 2450.0 0x60535E
761.28326 -865.0947 2467.0 0x5A544D
769.93427 -865.0947 2467.0 0x4F4A4C
773.22003 -859.13336 2450.0 0x56535B
781.81134 -859.13336 2450.0 0x5D585C
795.8872 -865.0947 2467.0 0x4C444B
798.99396 -859.13336 2450.0 0x3F3443
801.65204 -852.82135 2432.0 0x383536
777.2001 -818.10535 2333.0 0x252525
769.55914 -801.624 2286.0 0x09080F
777.5754 -801.624 2286.0 0x1C1C1C
780.4367 -796.3641 2271.0 0x303437
788.4003 -796.3641 2271.0 0x3D4758
806.88403 -806.88403 2301.0 0x373D34
814.95294 -806.88403 2301.0 0x4B4E4F
828.7447 -812.4947 2317.0 0x393939
868.75574 -775.6747 2212.0 0x373445
870.9648 -770.7654 2198.0 0x0A0B04
829.8176 -715.36005 2040.0 0x0E0E0E
827.1246 -706.94403 2016.0 0x495256
839.15936 -711.15204 2028.0 0x4D5A58
841.2633 -706.94403 2016.0 0x424D50
843.70404 -703.0867 2005.0 0x383F2F
850.7349 -703.0867 2005.0 0x5B6168
852.6321 -698.87866 1993.0 0x858D86
854.4449 -694.67065 1981.0 0x676C61
856.6086 -690.81335 1970.0 0x6D6966
858.695 -686.95605 1959.0 0x69696B
855.40234 -678.8907 1936.0 0x6B6D73
857.73773 -675.38403 1926.0 0x676A69
854.61676 -667.6694 1904.0 0x5F6167
861.29346 -667.6694 1904.0 0x6F6A60
863.4115 -664.16266 1894.0 0x6D6A62
860.4063 -656.7987 1873.0 0x686A5E
857.71674 -649.78534 1853.0 0x6C6D68
859.5506 -646.2787 1843.0 0x666668
861.3145 -642.77203 1833.0 0x6B6B60
863.00824 -639.2654 1823.0 0x706D65
864.63184 -635.75867 1813.0 0x6A675D
866.6657 -632.60266 1804.0 0x747474
863.7972 -625.94006 1785.0 0x6D6C68
865.66974 -622.78406 1776.0 0x717360
862.5699 -616.12134 1757.0 0x636B64
864.2812 -612.9654 1748.0 0x616964
865.9293 -609.8094 1739.0 0x656A5F
-822.2012 -532.3225 1503.0 0xABB6B0
-809.32117 -527.36414 1489.0 0xAEB7B2
-804.09973 -527.36414 1489.0 0xAEB3AF
-795.6592 -525.2391 1483.0 0xB1B4AA
-790.4588 -525.2391 1483.0 0xB0B1AC
-785.2584 -525.2391 1483.0 0xACADA8
-780.05804 -525.2391 1483.0 0xB5B8B0
-774.8576 -525.2391 1483.0 0xADAFAA
-766.54333 -523.114 1477.0 0xB6B8AE
-761.364 -523.114 1477.0 0xB1B3AE
-752.6008 -520.6348 1470.0 0xB3B8B4
-747.44604 -520.6348 1470.0 0xAAB4AA
-742.2912 -520.6348 1470.0 0xAFB9B1
-737.1364 -520.6348 1470.0 0xB1BBAF
-735.4673 -523.114 1477.0 0xB3BCB9
-726.82684 -520.6348 1470.0 0xB3B7B1
-718.72644 -518.50977 1464.0 0xB9BAB5
-713.59265 -518.50977 1464.0 0xB9BDB9
-708.4589 -518.50977 1464.0 0xB2BAB3
-703.32513 -518.50977 1464.0 0xB4BCB7
-695.32996 -516.3847 1458.0 0xB2B9B7
-693.0576 -518.50977 1464.0 0xAEB9B3
-687.9238 -518.50977 1464.0 0xB1B9C4
-682.79016 -518.50977 1464.0 0xB1B7BC
-680.43365 -520.6348 1470.0 0xBABFBB
-675.2788 -520.6348 1470.0 0xB5BAB6
-667.3888 -518.50977 1464.0 0xBAC1BF
-664.96924 -520.6348 1470.0 0xB8BEB7
-657.12134 -518.50977 1464.0 0xBAB9BE
-654.6596 -520.6348 1470.0 0xB8B8BF
-646.8538 -518.50977 1464.0 0xB8B9BB
-641.72003 -518.50977 1464.0 0xBABDBC
-636.58624 -518.50977 1464.0 0xB9BCBB
-628.8646 -516.3847 1458.0 0xB5BDB8
-623.75183 -516.3847 1458.0 0xBCC5BB
-618.63916 -516.3847 1458.0 0xB9C0C0
-611.00165 -514.2597 1452.0 0xBDC4C6
-605.9099 -514.2597 1452.0 0xBBBFC2
-603.301 -516.3847 1458.0 0xC0BFBD
-598.18823 -516.3847 1458.0 0xBAB6BA
-593.07556 -516.3847 1458.0 0xBAB8B9
-587.9628 -516.3847 1458.0 0xC1C3C2
-582.8501 -516.3847 1458.0 0xC3C7BF
-577.73737 -516.3847 1458.0 0xB9BCBD
-572.62463 -516.3847 1458.0 0xC7C9C8
-567.51196 -516.3847 1458.0 0xB9C2C6
-562.39923 -516.3847 1458.0 0xBBC3C7
-554.9931 -514.2597 1452.0 0xC1C4C5
-552.17377 -516.3847 1458.0 0xBDC0BF
-547.06104 -516.3847 1458.0 0xC2C7C5
-541.94836 -516.3847 1458.0 0xC0C5C3
-536.83563 -516.3847 1458.0 0xBAC4C5
-531.7229 -516.3847 1458.0 0xBFC6C4
-526.61017 -516.3847 1458.0 0xC1C1C3
-521.49744 -516.3847 1458.0 0xBEC1C0
-516.38477 -516.3847 1458.0 0xC3C7C8
-509.16803 -514.2597 1452.0 0xC0C7C9
-504.07632 -514.2597 1452.0 0xC0C4C5
-498.98468 -514.2597 1452.0 0xC2C5C4
-493.89294 -514.2597 1452.0 0xBEC1C2
-490.82117 -516.3847 1458.0 0xC4C7C8
-485.7084 -516.3847 1458.0 0xC7C9C8
-480.59567 -516.3847 1458.0 0xC5C8C9
-477.4397 -518.50977 1464.0 0xC0C4C5
-472.30594 -518.50977 1464.0 0xC4CBC9
-465.25757 -516.3847 1458.0 0xBCC5C4
-460.1448 -516.3847 1458.0 0xC6C9C8
-455.03207 -516.3847 1458.0 0xCACCC9
-449.9194 -516.3847 1458.0 0xC9CCCB
-444.80664 -516.3847 1458.0 0xC8CDCB
-439.69397 -516.3847 1458.0 0xC4C7C8
-434.5812 -516.3847 1458.0 0xC8C9C4
-427.70114 -514.2597 1452.0 0xC7C9C6
-422.60947 -514.2597 1452.0 0xC8C9CB
-417.51776 -514.2597 1452.0 0xC4C7C8
-412.42612 -514.2597 1452.0 0xCBCDC8
-407.3344 -514.2597 1452.0 0xCDCFCE
-402.24274 -514.2597 1452.0 0xC5C8C7
-397.15106 -514.2597 1452.0 0xCACECA
-392.05936 -514.2597 1452.0 0xC3C6C5
-386.9677 -514.2597 1452.0 0xCDCFCC
-380.035 -511.7805 1445.0 0xC3C7C8
-376.78433 -514.2597 1452.0 0xCCCFD0
-371.6927 -514.2597 1452.0 0xCCD1CD
-366.60095 -514.2597 1452.0 0xCBD2D0
-361.5093 -514.2597 1452.0 0xC6CBC7
-356.4176 -514.2597 1452.0 0xD2D4D3
-351.32593 -514.2597 1452.0 0xD1D2D6
-346.23428 -514.2597 1452.0 0xCCCECD
-339.49796 -511.7805 1445.0 0xCFD3D6
-334.43085 -511.7805 1445.0 0xC4CBCB
-327.9961 -509.65543 1439.0 0xCBD2D4
-322.94998 -509.65543 1439.0 0xC8CBCA
-317.9039 -509.65543 1439.0 0xCFD2CA
-314.1623 -511.7805 1445.0 0xC9CBCF
-309.09518 -511.7805 1445.0 0xCACDCC
-305.50082 -514.2597 1452.0 0xCACDCC
-298.96085 -511.7805 1445.0 0xCDCFCE
-295.31747 -514.2597 1452.0 0xCBCCD0
-288.8266 -511.7805 1445.0 0xD2D3D7
-282.58124 -509.65543 1439.0 0xD1D5D1
-278.69235 -511.7805 1445.0 0xCAD1CF
-272.48904 -509.65543 1439.0 0xCBD2D2
-267.44296 -509.65543 1439.0 0xCAD1CF
-262.39685 -509.65543 1439.0 0xC5C9CA
-257.35077 -509.65543 1439.0 0xCAD1D1
-252.30467 -509.65543 1439.0 0xCDD4D4
-247.25858 -509.65543 1439.0 0xCACFCD
-242.2125 -509.65543 1439.0 0xD0D4D0
-237.16638 -509.65543 1439.0 0xD6D7D9
-232.12032 -509.65543 1439.0 0xCECED5
-227.0742 -509.65543 1439.0 0xCBCED6
-222.0281 -509.65543 1439.0 0xD2D5D6
-216.98203 -509.65543 1439.0 0xCAD0D7
-211.93593 -509.65543 1439.0 0xD0D5D1
-206.88985 -509.65543 1439.0 0xCCD0D1
-201.00214 -507.53043 1433.0 0xCDD2D0
-195.97707 -507.53043 1433.0 0xC9D0CE
-190.95204 -507.53043 1433.0 0xC9D0D2
-185.92697 -507.53043 1433.0 0xC7CED0
-180.14452 -505.40536 1427.0 0xC3CAC8
-175.87688 -507.53043 1433.0 0xC9CDCE
-170.85179 -507.53043 1433.0 0xC7CAC9
-165.82678 -507.53043 1433.0 0xCCCBD0
-160.8017 -507.53043 1433.0 0xCFCFD1
-155.77669 -507.53043 1433.0 0xCCCECB
-150.1204 -505.40536 1427.0 0xCACDCE
-145.11636 -505.40536 1427.0 0xC9CCCB
-140.7015 -507.53043 1433.0 0xC8CDCB
-135.67644 -507.53043 1433.0 0xC8CFD1
-130.65141 -507.53043 1433.0 0xC6CEC7
-125.626335 -507.53043 1433.0 0xC5CCCC
-120.096306 -505.40536 1427.0 0xC2CACC
-115.09232 -505.40536 1427.0 0xCCD1CF
-109.625404 -503.28033 1421.0 0xCACAC8
-104.64246 -503.28033 1421.0 0xC4C6C5
-99.65947 -503.28033 1421.0 0xC0C3C4
-94.27672 -501.15527 1415.0 0xC6C8C3
-89.693535 -503.28033 1421.0 0xC1C4C3
-84.71054 -503.28033 1421.0 0xC5C7CB
-79.7276 -503.28033 1421.0 0xC7CACB
-75.0602 -505.40536 1427.0 0xC0C7C9
-69.76161 -503.28033 1421.0 0xC1C8C8
-64.77866 -503.28033 1421.0 0xC0C4C5
-59.795673 -503.28033 1421.0 0xC3C7C8
-54.581287 -501.15527 1415.0 0xBDC1C6
-49.619335 -501.15527 1415.0 0xBBC1C6
-44.657383 -501.15527 1415.0 0xC0C8CA
-39.695477 -501.15527 1415.0 0xBAC2C6
-34.733524 -501.15527 1415.0 0xAFBBC0
-29.77162 -501.15527 1415.0 0x5E6E7D
-33.87437 -855.3287 2415.0 0x322A26
-25.584658 -861.34955 2432.0 0x43392F
-17.056412 -861.34955 2432.0 0x3C3228
-8.591366 -867.72473 2450.0 0x3F3C3D
0.0 -867.72473 2450.0 0x2C312F
8.528246 -861.34955 2432.0 0x27291F
17.182732 -867.72473 2450.0 0x191F24
25.584576 -861.34955 2432.0 0x161616
34.112823 -861.34955 2432.0 0x131313
42.95667 -867.72473 2450.0 0x151515
51.905716 -873.74567 2467.0 0x15120A
61.440376 -886.49585 2503.0 0x151515
71.283455 -899.95447 2541.0 0x171717
80.193924 -899.95447 2541.0 0x16180E
89.1044 -899.95447 2541.0 0x0F0F0F
98.014885 -899.95447 2541.0 0x161908
106.925354 -899.95447 2541.0 0x3E372C
104.21107 -809.64026 2286.0 0x485032
112.22733 -809.64026 2286.0 0x243602
120.24361 -809.64026 2286.0 0x393401
128.25987 -809.64026 2286.0 0x504506
134.48775 -799.0151 2256.0 0x7D7465
141.45187 -793.70245 2241.0 0x5E5B51
149.31033 -793.70245 2241.0 0x665C54
157.16881 -793.70245 2241.0 0x5B5238
165.02728 -793.70245 2241.0 0x53533A
172.88574 -793.70245 2241.0 0x4A4338
179.53427 -788.38983 2226.0 0x4A4328
187.34013 -788.38983 2226.0 0x3A3832
195.14601 -788.38983 2226.0 0x2E2811
202.95189 -788.38983 2226.0 0x2C2C1C
210.75775 -788.38983 2226.0 0x312C17
220.03627 -793.70245 2241.0 0x1F2000
227.89473 -793.70245 2241.0 0x322D18
235.7532 -793.70245 2241.0 0x2D2710
248.5035 -809.64026 2286.0 0x09050B
263.5892 -831.9532 2349.0 0x020602
271.82623 -831.9532 2349.0 0x28280D
278.1558 -826.28644 2333.0 0x4B4B1F
280.56842 -809.64026 2286.0 0x3E3B1A
288.5847 -809.64026 2286.0 0x474213
294.65475 -804.32764 2271.0 0x2B2D05
300.61945 -799.0151 2256.0 0x1F2500
306.47916 -793.70245 2241.0 0x63580E
300.5915 -758.99347 2143.0 0x746545
304.2244 -749.4308 2116.0 0x1A170F
309.72992 -744.82654 2103.0 0x08070E
313.33466 -735.9722 2078.0 0x070A02
322.47305 -740.2223 2090.0 0x090909
327.90842 -735.9722 2078.0 0x03070A
337.13098 -740.2223 2090.0 0x020801
344.45996 -740.2223 2090.0 0x050A08
349.76892 -735.9722 2078.0 0x060B09
357.0558 -735.9722 2078.0 0x030303
364.34268 -735.9722 2078.0 0x0C090A
371.62955 -735.9722 2078.0 0x302904
398.2452 -773.5146 2184.0 0x655F35
411.10754 -783.43146 2212.0 0x6C663C
421.51535 -788.38983 2226.0 0x626135
429.32123 -788.38983 2226.0 0x686037
440.07266 -793.70245 2241.0 0x545929
444.93298 -788.38983 2226.0 0x3E4827
455.78946 -793.70245 2241.0 0x414300
460.54456 -788.38983 2226.0 0x62632B
468.3504 -788.38983 2226.0 0x5C5C32
411.98428 -682.1379 1926.0 0x343A31
413.95508 -674.34607 1904.0 0x08140E
418.42242 -670.8043 1894.0 0x0C0E00
425.06412 -670.8043 1894.0 0x0F1208
429.1985 -666.9084 1883.0 0x0A110F
435.80157 -666.9084 1883.0 0x061114
440.05518 -663.3667 1873.0 0x051013
446.62305 -663.3667 1873.0 0x15120A
453.19107 -663.3667 1873.0 0x171214
462.21375 -666.9084 1883.0 0x191919
468.81683 -666.9084 1883.0 0x0B1116
475.41992 -666.9084 1883.0 0x131826
482.02286 -666.9084 1883.0 0x1A1728
488.62595 -666.9084 1883.0 0x2C2C2C
495.229 -666.9084 1883.0 0x4F5251
648.1443 -861.34955 2432.0 0x4C504A
661.5328 -867.72473 2450.0 0x515153
670.12396 -867.72473 2450.0 0x464941
673.7288 -861.34955 2432.0 0x4B4E4F
687.3067 -867.72473 2450.0 0x504F4B
695.898 -867.72473 2450.0 0x4E4C4F
704.48944 -867.72473 2450.0 0x544D4F
713.0806 -867.72473 2450.0 0x5C5150
716.36993 -861.34955 2432.0 0x524E4B
724.89813 -861.34955 2432.0 0x59544A
733.4264 -861.34955 2432.0 0x5D534D
741.95465 -861.34955 2432.0 0x53434B
756.0373 -867.72473 2450.0 0x5C5150
764.6287 -867.72473 2450.0 0x645656
773.22003 -867.72473 2450.0 0x5C4C58
781.81134 -867.72473 2450.0 0x524A48
790.4028 -867.72473 2450.0 0x4E4A45
798.99396 -867.72473 2450.0 0x48444A
796.0484 -855.3287 2415.0 0x3C383E
771.86993 -820.6196 2317.0 0x303030
774.6087 -814.9529 2301.0 0x060C03
782.67755 -814.9529 2301.0 0x000302
785.5915 -809.64026 2286.0 0x29271F
793.6077 -809.64026 2286.0 0x150F18
801.624 -809.64026 2286.0 0x0C0D06
804.3277 -804.32764 2271.0 0x131313
806.92615 -799.0151 2256.0 0x242119
860.99896 -783.43146 2212.0 0x2A2A2A
868.75574 -783.43146 2212.0 0x221F32
870.9648 -778.473 2198.0 0x130D16
873.07587 -773.5146 2184.0 0x0F0C1D
842.8274 -740.2223 2090.0 0x0D1028
829.8176 -722.5137 2040.0 0x00060D
832.0479 -718.26355 2028.0 0x454C55
834.1939 -714.0135 2016.0 0x52545A
841.2633 -714.0135 2016.0 0x424B4F
843.70404 -710.11755 2005.0 0x2C312F
850.7349 -710.11755 2005.0 0x60686C
852.6321 -705.8675 1993.0 0x8E8D79
854.4449 -701.6174 1981.0 0x787670
856.6086 -697.7215 1970.0 0x666D6D
858.695 -693.82556 1959.0 0x676769
860.2626 -689.5755 1947.0 0x646263
857.73773 -682.1379 1926.0 0x686964
859.5541 -678.24194 1915.0 0x676A6B
861.29346 -674.34607 1904.0 0x616659
863.4115 -670.8043 1894.0 0x687069
865.00006 -666.9084 1883.0 0x6A6C62
857.71674 -656.2832 1853.0 0x706C69
859.5506 -652.7415 1843.0 0x636365
861.3145 -649.1997 1833.0 0x666B60
863.00824 -645.658 1823.0 0x6A6C67
864.63184 -642.1163 1813.0 0x6C6A6B
866.6657 -638.9287 1804.0 0x6B6B6B
863.7972 -632.1994 1785.0 0x6A746C
865.66974 -629.01184 1776.0 0x6B756D
862.5699 -622.28253 1757.0 0x646766
864.2812 -619.09503 1748.0 0x6B6E6F
865.9293 -615.9075 1739.0 0x696969
-811.2604 -530.43945 1483.0 0xAEB4AB
-806.05994 -530.43945 1483.0 0xABB3AE
-800.85956 -530.43945 1483.0 0xAAB3B2
-795.6592 -530.43945 1483.0 0xAEB5B3
-790.4588 -530.43945 1483.0 0xB6B9B1
-782.0814 -528.2934 1477.0 0xB3B6AE
-776.90204 -528.2934 1477.0 0xB3BBB4
-768.06525 -525.7896 1470.0 0xAFB8B3
-762.9104 -525.7896 1470.0 0xB3BDBA
-757.7556 -525.7896 1470.0 0xB1BBB3
-749.529 -523.64355 1464.0 0xB6BDBB
-747.44604 -525.7896 1470.0 0xAEB4A9
-739.2615 -523.64355 1464.0 0xB0BBB5
-734.12775 -523.64355 1464.0 0xB2BCB2
-728.9939 -523.64355 1464.0 0xB2B7B5
-720.89355 -521.49744 1458.0 0xB2B4B8
-715.7808 -521.49744 1458.0 0xBABCB7
-710.6681 -521.49744 1458.0 0xB2B5B4
-705.5554 -521.49744 1458.0 0xB9BDB9
-697.5602 -519.3514 1452.0 0xB2BAB3
-692.46857 -519.3514 1452.0 0xB2B5BD
-687.37683 -519.3514 1452.0 0xBFC2BA
-682.2851 -519.3514 1452.0 0xB3B3BC
-679.9918 -521.49744 1458.0 0xB6B6B6
-674.879 -521.49744 1458.0 0xB7BCB8
-669.76636 -521.49744 1458.0 0xB2BAB5
-661.9184 -519.3514 1452.0 0xB4BBB9
-656.8267 -519.3514 1452.0 0xC0C3BB
-651.73505 -519.3514 1452.0 0xB8B6B9
-646.6434 -519.3514 1452.0 0xBBB9BA
-641.55176 -519.3514 1452.0 0xBEBEBC
-636.46 -519.3514 1452.0 0xBFC3BF
-631.3683 -519.3514 1452.0 0xB8BCBD
-626.2767 -519.3514 1452.0 0xB9C1BC
-618.1903 -516.8476 1445.0 0xB5BEB9
-613.12317 -516.8476 1445.0 0xBDC2C0
-611.00165 -519.3514 1452.0 0xBABCBB
-605.9099 -519.3514 1452.0 0xBDC0B6
-600.81824 -519.3514 1452.0 0xBCBCBC
-595.7266 -519.3514 1452.0 0xBFC2C3
-587.7875 -516.8476 1445.0 0xB5BCBA
-582.72034 -516.8476 1445.0 0xBDC5C0
-577.6532 -516.8476 1445.0 0xBDC6BC
-572.58606 -516.8476 1445.0 0xC1C3C2
-567.519 -516.8476 1445.0 0xBEBCBD
-565.1765 -519.3514 1452.0 0xC1C4C3
-560.08484 -519.3514 1452.0 0xBDC4C6
-552.3175 -516.8476 1445.0 0xB8BFBD
-549.9015 -519.3514 1452.0 0xB6BEC0
-542.1833 -516.8476 1445.0 0xBCC0C1
-537.1162 -516.8476 1445.0 0xBFBFBD
-532.049 -516.8476 1445.0 0xBEBEBC
-529.5347 -519.3514 1452.0 0xC6CAC4
-524.44305 -519.3514 1452.0 0xBFC0C2
-519.3514 -519.3514 1452.0 0xC4C8C2
-514.2597 -519.3514 1452.0 0xC2C8C1
-506.71335 -516.8476 1445.0 0xBDC2C0
-501.64618 -516.8476 1445.0 0xC7C8CA
-496.57907 -516.8476 1445.0 0xC0C4BE
-489.47107 -514.70154 1439.0 0xBEC2C5
-486.44485 -516.8476 1445.0 0xBBC3C5
-483.70963 -519.3514 1452.0 0xC9CBCF
-476.31052 -516.8476 1445.0 0xC3C6CE
-473.52628 -519.3514 1452.0 0xBBC2C4
-468.43457 -519.3514 1452.0 0xC4C7C8
-465.25757 -521.49744 1458.0 0xC4C7C8
-458.25122 -519.3514 1452.0 0xD1D3D2
-455.03207 -521.49744 1458.0 0xC5C9C5
-448.06787 -519.3514 1452.0 0xC5CAC8
-442.97617 -519.3514 1452.0 0xC9CDC9
-437.8845 -519.3514 1452.0 0xCACDCE
-430.70636 -516.8476 1445.0 0xC2C5C4
-425.6392 -516.8476 1445.0 0xD0D3D2
-420.57208 -516.8476 1445.0 0xCACDCE
-415.50494 -516.8476 1445.0 0xCDCFD3
-410.43784 -516.8476 1445.0 0xCDD1D4
-405.37067 -516.8476 1445.0 0xC2C9C9
-400.30353 -516.8476 1445.0 0xC6CDCB
-395.23642 -516.8476 1445.0 0xC3CAC8
-390.16928 -516.8476 1445.0 0xC9CCCB
-385.10217 -516.8476 1445.0 0xCCD0C8
-378.457 -514.70154 1439.0 0xC7CECC
-373.41092 -514.70154 1439.0 0xCBD0CE
-369.90076 -516.8476 1445.0 0xCBCDCC
-364.83362 -516.8476 1445.0 0xCCD0D3
-358.27264 -514.70154 1439.0 0xCCCFCE
-353.22653 -514.70154 1439.0 0xCBCFD0
-348.18045 -514.70154 1439.0 0xC9D0CE
-344.5651 -516.8476 1445.0 0xC7CCC8
-338.08826 -514.70154 1439.0 0xCAD1D3
-333.04218 -514.70154 1439.0 0xCDD4D2
-327.9961 -514.70154 1439.0 0xCAD1D3
-322.94998 -514.70154 1439.0 0xCFD1D0
-317.9039 -514.70154 1439.0 0xC8CBCA
-312.8578 -514.70154 1439.0 0xD2D4D8
-307.8117 -514.70154 1439.0 0xC9D1CC
-304.028 -516.8476 1445.0 0xC6CDCD
-297.7195 -514.70154 1439.0 0xD2D3D5
-292.67343 -514.70154 1439.0 0xCFD0D4
-287.62732 -514.70154 1439.0 0xD6D4D5
-281.403 -512.5555 1433.0 0xCBCBCB
-276.37793 -512.5555 1433.0 0xC8CDCB
-271.35287 -512.5555 1433.0 0xCBCFD2
-266.32785 -512.5555 1433.0 0xD1D3D7
-261.30276 -512.5555 1433.0 0xD0D3D2
-256.27777 -512.5555 1433.0 0xD1D4D3
-251.25267 -512.5555 1433.0 0xCFD1D0
-246.2276 -512.5555 1433.0 0xCFD0D4
-241.20258 -512.5555 1433.0 0xCFD3CF
-236.1775 -512.5555 1433.0 0xCCD5D4
-231.1525 -512.5555 1433.0 0xC8CFD1
-225.1806 -510.4094 1427.0 0xC9D0D2
-219.25081 -508.26328 1421.0 0xCFD6D4
-214.26787 -508.26328 1421.0 0xD3D7DA
-210.16856 -510.4094 1427.0 0xC8CDCB
-205.16458 -510.4094 1427.0 0xD4D7D6
-200.16054 -510.4094 1427.0 0xCBCFD0
-195.15651 -510.4094 1427.0 0xCDD1CD
-189.353 -508.26328 1421.0 0xC8CCCF
-184.37001 -508.26328 1421.0 0xC8CFCF
-179.38707 -508.26328 1421.0 0xD0D5D3
-174.40407 -508.26328 1421.0 0xCED2D3
-169.42108 -508.26328 1421.0 0xCBCDD1
-165.13245 -510.4094 1427.0 0xD2D4D3
-160.12843 -510.4094 1427.0 0xC8CDCB
-154.4722 -508.26328 1421.0 0xC7CECC
-149.48921 -508.26328 1421.0 0xD0D4D5
-144.50621 -508.26328 1421.0 0xC8CBCA
-139.52327 -508.26328 1421.0 0xCFD1CE
-135.10835 -510.4094 1427.0 0xBFC6CD
-129.55733 -508.26328 1421.0 0xC9CFC6
-124.57434 -508.26328 1421.0 0xCBCDCC
-119.08639 -506.1172 1415.0 0xD2D5D4
-114.6084 -508.26328 1421.0 0xCACACA
-109.16253 -506.1172 1415.0 0xCCCECD
-104.20062 -506.1172 1415.0 0xBEC6C8
-99.23867 -506.1172 1415.0 0xC2C8CD
-94.27672 -506.1172 1415.0 0xC3CBC4
-89.31481 -506.1172 1415.0 0xBCC9C7
-84.35286 -506.1172 1415.0 0xBDC8CB
-79.39095 -506.1172 1415.0 0xBDC8C9
-74.429 -506.1172 1415.0 0xBCC5C9
-69.46705 -506.1172 1415.0 0xBEC7C6
-64.50514 -506.1172 1415.0 0xBCC7C1
-59.543194 -506.1172 1415.0 0xBBC5CB
-54.38842 -504.3288 1410.0 0xC2C8CD
-49.444 -504.3288 1410.0 0xC0C4C9
-44.499584 -504.3288 1410.0 0xBFC5CA
-39.55521 -504.3288 1410.0 0xC0C7C9
-34.610794 -504.3288 1410.0 0xC3C6D0
-29.66642 -504.3288 1410.0 0x8995A3
-34.112823 -869.87775 2432.0 0x131313
-25.584658 -869.87775 2432.0 0x0B171A
-17.056412 -869.87775 2432.0 0x06170F
-8.7141 -888.8348 2485.0 0x091417
0.0 -888.8348 2485.0 0x18171E
8.65098 -882.39655 2467.0 0x10190D
17.554441 -895.2731 2503.0 0x182719
25.952776 -882.39655 2467.0 0x0D1318
34.603756 -882.39655 2467.0 0x0E1513
43.885937 -895.2731 2503.0 0x141B19
52.663155 -895.2731 2503.0 0x10190D
61.906765 -902.069 2522.0 0x11171C
70.75044 -902.069 2522.0 0x1B1A21
80.193924 -908.8649 2541.0 0x171A10
88.43813 -902.069 2522.0 0x0A0D03
97.28198 -902.069 2522.0 0x111B08
105.32631 -895.2731 2503.0 0x454533
104.21107 -817.6565 2286.0 0x6A6953
112.22733 -817.6565 2286.0 0x665F3A
119.454605 -812.2913 2271.0 0x706F59
127.418274 -812.2913 2271.0 0x6F715E
134.48775 -806.92615 2256.0 0x53522B
141.45187 -801.5609 2241.0 0x363636
149.31033 -801.5609 2241.0 0x2F2D27
157.16881 -801.5609 2241.0 0x161C03
165.02728 -801.5609 2241.0 0x1A2609
172.88574 -801.5609 2241.0 0x1B270A
179.53427 -796.19574 2226.0 0x1A1C00
187.34013 -796.19574 2226.0 0x202007
196.46101 -801.5609 2241.0 0x202200
204.31949 -801.5609 2241.0 0x2B2D05
212.17795 -801.5609 2241.0 0x232C20
220.03627 -801.5609 2241.0 0x4F4B2F
227.89473 -801.5609 2241.0 0x695E4B
235.7532 -801.5609 2241.0 0x27170A
272.09283 -895.2731 2503.0 0x121212
270.99527 -863.7972 2415.0 0x0A1307
275.52927 -851.6361 2381.0 0x28280D
280.06342 -840.1903 2349.0 0x433A2B
282.40942 -823.0217 2301.0 0x2D340A
288.5847 -817.6565 2286.0 0x0C0D00
296.60095 -817.6565 2286.0 0x58472D
302.61826 -812.2913 2271.0 0x676734
308.53055 -806.92615 2256.0 0x585F21
300.5915 -766.50824 2143.0 0x202F1A
306.09344 -761.50073 2129.0 0x000100
309.72992 -752.20105 2103.0 0x070707
317.1043 -752.20105 2103.0 0x040601
322.47305 -747.5512 2090.0 0x090909
327.90842 -743.25903 2078.0 0x060B09
337.13098 -747.5512 2090.0 0x010B01
344.45996 -747.5512 2090.0 0x060B09
351.78876 -747.5512 2090.0 0x050E02
359.1177 -747.5512 2090.0 0x090A03
364.34268 -743.25903 2078.0 0x0C0D06
371.62955 -743.25903 2078.0 0x202200
403.3509 -791.1882 2212.0 0x4F4009
413.70947 -796.19574 2226.0 0x726239
421.51535 -796.19574 2226.0 0x645A34
429.32123 -796.19574 2226.0 0x756F4C
440.07266 -801.5609 2241.0 0x6B694C
447.93118 -801.5609 2241.0 0x797456
455.78946 -801.5609 2241.0 0x676137
460.54456 -796.19574 2226.0 0x6B6B41
468.3504 -796.19574 2226.0 0x666745
409.63132 -684.9572 1915.0 0x444F40
413.95508 -681.0227 1904.0 0x040F09
418.42242 -677.4459 1894.0 0x071004
422.5954 -673.5115 1883.0 0x060B09
429.1985 -673.5115 1883.0 0x0A120D
435.80157 -673.5115 1883.0 0x121118
440.05518 -669.93463 1873.0 0x131313
446.62305 -669.93463 1873.0 0x13160C
453.19107 -669.93463 1873.0 0x0E1513
462.21375 -673.5115 1883.0 0x0B130E
468.81683 -673.5115 1883.0 0x15141B
475.41992 -673.5115 1883.0 0x151223
482.02286 -673.5115 1883.0 0x0F151A
488.62595 -673.5115 1883.0 0x2E2C26
495.229 -673.5115 1883.0 0x4E5152
643.61365 -863.7972 2415.0 0x504F4B
656.67255 -869.87775 2432.0 0x515148
665.20056 -869.87775 2432.0 0x51504C
669.0194 -863.7972 2415.0 0x525249
682.2571 -869.87775 2432.0 0x564F4D
685.9566 -863.7972 2415.0 0x4F474E
694.4253 -863.7972 2415.0 0x4A4748
702.89374 -863.7972 2415.0 0x54504D
716.36993 -869.87775 2432.0 0x5C524A
724.89813 -869.87775 2432.0 0x60564E
733.4264 -869.87775 2432.0 0x5F5B58
741.95465 -869.87775 2432.0 0x565455
756.0373 -876.316 2450.0 0x575052
759.011 -869.87775 2432.0 0x554D52
767.53925 -869.87775 2432.0 0x5A4C53
776.0675 -869.87775 2432.0 0x544D4F
790.4028 -876.316 2450.0 0x504B4D
793.1238 -869.87775 2432.0 0x49454B
790.44476 -857.7167 2398.0 0x3F3B41
777.2001 -834.46747 2333.0 0x313035
774.6087 -823.0217 2301.0 0x1C2519
782.67755 -823.0217 2301.0 0x272727
785.5915 -817.6565 2286.0 0x292B21
793.6077 -817.6565 2286.0 0x110E06
801.624 -817.6565 2286.0 0x060208
799.01514 -806.92615 2256.0 0x19131C
801.561 -801.5609 2241.0 0x262916
809.4193 -801.5609 2241.0 0x292E2C
796.49023 -781.17316 2184.0 0x150F18
862.30334 -806.92615 2256.0 0x020600
864.4284 -801.5609 2241.0 0x0C0C0C
866.4483 -796.19574 2226.0 0x1F1E25
868.75574 -791.1882 2212.0 0x0D1220
870.9648 -786.18066 2198.0 0x0B101E
873.07587 -781.17316 2184.0 0x100D1E
880.73444 -781.17316 2184.0 0x090E1C
824.9364 -725.37506 2028.0 0x0D1318
827.1246 -721.08295 2016.0 0x405255
834.1939 -721.08295 2016.0 0x535D55
841.2633 -721.08295 2016.0 0x3F4C4C
848.3328 -721.08295 2016.0 0x334040
850.7349 -717.1484 2005.0 0x606968
852.6321 -712.85626 1993.0 0x81867B
854.4449 -708.56415 1981.0 0x676B65
856.6086 -704.6296 1970.0 0x696C6B
858.695 -700.6951 1959.0 0x6A6965
860.2626 -696.403 1947.0 0x6B6764
857.73773 -688.8917 1926.0 0x6B685E
854.61676 -681.0227 1904.0 0x6B6A66
861.29346 -681.0227 1904.0 0x696969
863.4115 -677.4459 1894.0 0x66696A
865.00006 -673.5115 1883.0 0x696969
857.71674 -662.78107 1853.0 0x6F6F6F
864.2145 -662.78107 1853.0 0x63696E
861.3145 -655.62744 1833.0 0x667068
863.00824 -652.05066 1823.0 0x6B6E6D
864.63184 -648.4739 1813.0 0x6C6B72
866.6657 -645.25476 1804.0 0x676D72
863.7972 -638.4588 1785.0 0x6D7267
865.66974 -635.23975 1776.0 0x686B6A
862.5699 -628.4438 1757.0 0x666D6B
864.2812 -625.2247 1748.0 0x676F73
865.9293 -622.00555 1739.0 0x676E6C
-819.764 -537.80695 1489.0 0xA7AEAE
-811.2604 -535.63983 1483.0 0xA4A9A5
-806.05994 -535.63983 1483.0 0xAAAFAD
-793.83923 -530.9444 1470.0 0xADB6B3
-785.46533 -528.7773 1464.0 0xAEB5BC
-780.3315 -528.7773 1464.0 0xADB5AE
-775.1978 -528.7773 1464.0 0xA9B2AD
-770.064 -528.7773 1464.0 0xA9ADAE
-761.7953 -526.61017 1458.0 0xAAB1AF
-756.6826 -526.61017 1458.0 0xB3BCB0
-751.5698 -526.61017 1458.0 0xAEB3B1
-746.45715 -526.61017 1458.0 0xB4BBB9
-741.3444 -526.61017 1458.0 0xACB8AD
-739.2615 -528.7773 1464.0 0xB2BBB8
-731.119 -526.61017 1458.0 0xB3BDB1
-723.0186 -524.44305 1452.0 0xB3B8B6
-717.92694 -524.44305 1452.0 0xB4B5B9
-709.3987 -521.9148 1445.0 0xB0B5B1
-704.33154 -521.9148 1445.0 0xB2BBB8
-699.2644 -521.9148 1445.0 0xB3BCBB
-694.19727 -521.9148 1445.0 0xB1BAB5
-689.1302 -521.9148 1445.0 0xB0B8BC
-687.37683 -524.44305 1452.0 0xBCC2B9
-682.2851 -524.44305 1452.0 0xADB7B4
-677.1935 -524.44305 1452.0 0xB5B9B5
-672.1018 -524.44305 1452.0 0xB6B6B8
-667.01013 -524.44305 1452.0 0xBCBCBC
-658.72736 -521.9148 1445.0 0xBEC2C5
-653.6602 -521.9148 1445.0 0xB6B6BF
-645.9 -519.7476 1439.0 0xBBBDC1
-638.18176 -517.5805 1433.0 0xB4BBBB
-635.8078 -519.7476 1439.0 0xB8BFBD
-630.7617 -519.7476 1439.0 0xBBBEBD
-628.3246 -521.9148 1445.0 0xB7B9BD
-620.66956 -519.7476 1439.0 0xB8BDB9
-615.62335 -519.7476 1439.0 0xBFC7C0
-608.0315 -517.5805 1433.0 0xB6BDBB
-605.53125 -519.7476 1439.0 0xC1C4BC
-600.4851 -519.7476 1439.0 0xBBBBB9
-595.4391 -519.7476 1439.0 0xC2BFC0
-590.3929 -519.7476 1439.0 0xBDBDBB
-582.90625 -517.5805 1433.0 0xC2C4C1
-577.88116 -517.5805 1433.0 0xC0C2BD
-572.8561 -517.5805 1433.0 0xC1C2BB
-567.83105 -517.5805 1433.0 0xBABEBF
-562.80597 -517.5805 1433.0 0xBCC3C5
-557.78094 -517.5805 1433.0 0xC0C7C5
-555.0703 -519.7476 1439.0 0xBAC1C3
-550.0242 -519.7476 1439.0 0xBDC2BE
-544.9781 -519.7476 1439.0 0xC1C2C4
-539.932 -519.7476 1439.0 0xBDBEC0
-532.6557 -517.5805 1433.0 0xB9C0C2
-527.6306 -517.5805 1433.0 0xC0C5C1
-524.7937 -519.7476 1439.0 0xBDC1C2
-519.7476 -519.7476 1439.0 0xC0C2C6
-514.70154 -519.7476 1439.0 0xC6CAC4
-509.65546 -519.7476 1439.0 0xBEC9C3
-502.50534 -517.5805 1433.0 0xBDC4C2
-497.4803 -517.5805 1433.0 0xC9CBCA
-492.45526 -517.5805 1433.0 0xBFC1BC
-487.43018 -517.5805 1433.0 0xC3C6C7
-484.425 -519.7476 1439.0 0xC2C7C5
-479.37888 -519.7476 1439.0 0xC0C0C0
-474.33276 -519.7476 1439.0 0xC1BFC9
-469.2867 -519.7476 1439.0 0xC8CACE
-464.2406 -519.7476 1439.0 0xCACFCD
-461.1092 -521.9148 1445.0 0xC8CFCD
-456.04202 -521.9148 1445.0 0xC0C7C9
-450.97485 -521.9148 1445.0 0xC8CAC7
-445.90775 -521.9148 1445.0 0xC8CBCA
-440.8406 -521.9148 1445.0 0xC0C6BF
-433.96405 -519.7476 1439.0 0xC2C6CB
-428.91794 -519.7476 1439.0 0xC5C7CB
-423.87186 -519.7476 1439.0 0xC4C7C8
-418.82578 -519.7476 1439.0 0xC7C9C8
-413.77966 -519.7476 1439.0 0xC9CBCA
-408.73358 -519.7476 1439.0 0xC4CACF
-403.68747 -519.7476 1439.0 0xC2C9CB
-398.6414 -519.7476 1439.0 0xCACDCC
-393.5953 -519.7476 1439.0 0xC9D0CE
-388.5492 -519.7476 1439.0 0xC6CDCB
-383.5031 -519.7476 1439.0 0xC7CFCA
-378.457 -519.7476 1439.0 0xCBD2D2
-373.41092 -519.7476 1439.0 0xCFD1D0
