VERSION .7
FIELDS x y z rgb
SIZE 4 4 4 4
TYPE F F F F
COUNT 1 1 1 1
WIDTH 1272
HEIGHT 1
VIEWPOINT 0 0 0 1 0 0 0
POINTS 1272
DATA ascii
430.28555 -306.132 970.0 4.2108e+06
435.38773 -306.132 970.0 4.2108e+06
440.49 -306.132 970.0 4.2108e+06
445.59216 -306.132 970.0 4.2108e+06
450.69434 -306.132 970.0 4.2108e+06
455.79654 -306.132 970.0 4.2108e+06
460.8987 -306.132 970.0 4.2108e+06
463.1185 -304.2384 964.0 4.2108e+06
467.21777 -303.6072 962.0 4.2108e+06
-520.66986 -297.7581 928.0 4.2108e+06
-514.1212 -296.79553 925.0 4.2108e+06
-509.25568 -296.79553 925.0 4.2108e+06
-504.3902 -296.79553 925.0 4.2108e+06
-499.5247 -296.79553 925.0 4.2108e+06
-494.65918 -296.79553 925.0 4.2108e+06
-489.79367 -296.79553 925.0 4.2108e+06
-484.9282 -296.79553 925.0 4.2108e+06
-480.06268 -296.79553 925.0 4.2108e+06
-475.19717 -296.79553 925.0 4.2108e+06
-470.3317 -296.79553 925.0 4.2108e+06
-465.4662 -296.79553 925.0 4.2108e+06
-460.60068 -296.79553 925.0 4.2108e+06
-455.73517 -296.79553 925.0 4.2108e+06
-450.8697 -296.79553 925.0 4.2108e+06
-446.00418 -296.79553 925.0 4.2108e+06
-442.56943 -297.7581 928.0 4.2108e+06
-436.2732 -296.79553 925.0 4.2108e+06
-432.80685 -297.7581 928.0 4.2108e+06
-427.92554 -297.7581 928.0 4.2108e+06
-423.95602 -298.3998 930.0 4.2108e+06
-419.0642 -298.3998 930.0 4.2108e+06
-414.17242 -298.3998 930.0 4.2108e+06
-409.2806 -298.3998 930.0 4.2108e+06
-404.38882 -298.3998 930.0 4.2108e+06
-399.497 -298.3998 930.0 4.2108e+06
-394.60522 -298.3998 930.0 4.2108e+06
-389.7134 -298.3998 930.0 4.2108e+06
-384.82162 -298.3998 930.0 4.2108e+06
-381.97244 -300.00412 935.0 4.2108e+06
-376.2478 -299.3624 933.0 4.2108e+06
-372.13626 -300.00412 935.0 4.2108e+06
-366.43265 -299.3624 933.0 4.2108e+06
-362.30005 -300.00412 935.0 4.2108e+06
-357.38196 -300.00412 935.0 4.2108e+06
-351.7099 -299.3624 933.0 4.2108e+06
-346.80237 -299.3624 933.0 4.2108e+06
-341.89474 -299.3624 933.0 4.2108e+06
-337.70953 -300.00412 935.0 4.2108e+06
-332.79144 -300.00412 935.0 4.2108e+06
-327.172 -299.3624 933.0 4.2108e+06
-323.9915 -300.9667 938.0 4.2108e+06
-318.03714 -300.00412 935.0 4.2108e+06
-313.11905 -300.00412 935.0 4.2108e+06
-309.1898 -300.9667 938.0 4.2108e+06
-303.28284 -300.00412 935.0 4.2108e+06
-298.36475 -300.00412 935.0 4.2108e+06
-293.44666 -300.00412 935.0 4.2108e+06
-288.52853 -300.00412 935.0 4.2108e+06
-283.6104 -300.00412 935.0 4.2108e+06
-279.58655 -300.9667 938.0 4.2108e+06
-274.65268 -300.9667 938.0 4.2108e+06
-269.71878 -300.9667 938.0 4.2108e+06
-264.7849 -300.9667 938.0 4.2108e+06
-259.851 -300.9667 938.0 4.2108e+06
-254.91714 -300.9667 938.0 4.2108e+06
-249.98328 -300.9667 938.0 4.2108e+06
-245.04936 -300.9667 938.0 4.2108e+06
-240.62747 -301.60843 940.0 4.2108e+06
-235.68306 -301.60843 940.0 4.2108e+06
-230.24774 -300.9667 938.0 4.2108e+06
-225.31387 -300.9667 938.0 4.2108e+06
-220.84987 -301.60843 940.0 4.2108e+06
-215.44612 -300.9667 938.0 4.2108e+06
-210.5122 -300.9667 938.0 4.2108e+06
-205.57834 -300.9667 938.0 4.2108e+06
-200.64447 -300.9667 938.0 4.2108e+06
-195.71057 -300.9667 938.0 4.2108e+06
-191.18347 -301.60843 940.0 4.2108e+06
-185.8428 -300.9667 938.0 4.2108e+06
-180.90894 -300.9667 938.0 4.2108e+06
-175.97507 -300.9667 938.0 4.2108e+06
-171.04117 -300.9667 938.0 4.2108e+06
-166.10732 -300.9667 938.0 4.2108e+06
-161.17342 -300.9667 938.0 4.2108e+06
-156.23953 -300.9667 938.0 4.2108e+06
-151.30566 -300.9667 938.0 4.2108e+06
-146.37177 -300.9667 938.0 4.2108e+06
-141.4379 -300.9667 938.0 4.2108e+06
-136.79506 -301.60843 940.0 4.2108e+06
-131.57014 -300.9667 938.0 4.2108e+06
-126.90628 -301.60843 940.0 4.2108e+06
-121.96186 -301.60843 940.0 4.2108e+06
-117.01748 -301.60843 940.0 4.2108e+06
-112.07306 -301.60843 940.0 4.2108e+06
-107.47057 -302.57098 943.0 4.2108e+06
-102.5104 -302.57098 943.0 4.2108e+06
-97.23986 -301.60843 940.0 4.2108e+06
-92.29548 -301.60843 940.0 4.2108e+06
-87.35106 -301.60843 940.0 4.2108e+06
-82.66967 -302.57098 943.0 4.2108e+06
-77.95672 -303.5336 946.0 4.2108e+06
-72.980736 -303.5336 946.0 4.2108e+06
-68.0048 -303.5336 946.0 4.2108e+06
-63.028816 -303.5336 946.0 4.2108e+06
-58.052868 -303.5336 946.0 4.2108e+06
-53.07692 -303.5336 946.0 4.2108e+06
-48.10094 -303.5336 946.0 4.2108e+06
-43.124992 -303.5336 946.0 4.2108e+06
-38.149017 -303.5336 946.0 4.2108e+06
-33.17307 -303.5336 946.0 4.2108e+06
-28.1077 -302.57098 943.0 4.2108e+06
-23.147501 -302.57098 943.0 4.2108e+06
-18.187334 -302.57098 943.0 4.2108e+06
-13.269214 -303.5336 946.0 4.2108e+06
-8.293267 -303.5336 946.0 4.2108e+06
-3.3243327 -304.1753 948.0 4.2108e+06
1.6586281 -303.5336 946.0 4.2108e+06
6.634639 -303.5336 946.0 4.2108e+06
11.610587 -303.5336 946.0 4.2108e+06
16.586535 -303.5336 946.0 4.2108e+06
21.562483 -303.5336 946.0 4.2108e+06
26.538427 -303.5336 946.0 4.2108e+06
31.581066 -304.1753 948.0 4.2108e+06
36.567535 -304.1753 948.0 4.2108e+06
41.554 -304.1753 948.0 4.2108e+06
46.540466 -304.1753 948.0 4.2108e+06
51.526936 -304.1753 948.0 4.2108e+06
56.513466 -304.1753 948.0 4.2108e+06
61.694553 -305.13788 951.0 4.2108e+06
66.6968 -305.13788 951.0 4.2108e+06
71.69905 -305.13788 951.0 4.2108e+06
76.94325 -306.10046 954.0 4.2108e+06
81.96135 -306.10046 954.0 4.2108e+06
86.70586 -305.13788 951.0 4.2108e+06
91.70811 -305.13788 951.0 4.2108e+06
96.71035 -305.13788 951.0 4.2108e+06
101.7126 -305.13788 951.0 4.2108e+06
107.05155 -306.10046 954.0 4.2108e+06
112.06958 -306.10046 954.0 4.2108e+06
116.719406 -305.13788 951.0 4.2108e+06
122.10563 -306.10046 954.0 4.2108e+06
127.12366 -306.10046 954.0 4.2108e+06
131.72621 -305.13788 951.0 4.2108e+06
136.72845 -305.13788 951.0 4.2108e+06
141.7307 -305.13788 951.0 4.2108e+06
146.73294 -305.13788 951.0 4.2108e+06
152.21385 -306.10046 954.0 4.2108e+06
157.23195 -306.10046 954.0 4.2108e+06
162.24998 -306.10046 954.0 4.2108e+06
167.268 -306.10046 954.0 4.2108e+06
172.28603 -306.10046 954.0 4.2108e+06
177.30406 -306.10046 954.0 4.2108e+06
182.32216 -306.10046 954.0 4.2108e+06
187.34018 -306.10046 954.0 4.2108e+06
192.3582 -306.10046 954.0 4.2108e+06
197.37624 -306.10046 954.0 4.2108e+06
202.39426 -306.10046 954.0 4.2108e+06
207.41235 -306.10046 954.0 4.2108e+06
212.43037 -306.10046 954.0 4.2108e+06
217.44841 -306.10046 954.0 4.2108e+06
222.93282 -306.7422 956.0 4.2108e+06
227.96136 -306.7422 956.0 4.2108e+06
232.50256 -306.10046 954.0 4.2108e+06
237.52058 -306.10046 954.0 4.2108e+06
242.5386 -306.10046 954.0 4.2108e+06
247.55664 -306.10046 954.0 4.2108e+06
253.10417 -306.7422 956.0 4.2108e+06
258.9428 -307.70477 959.0 4.2108e+06
263.98715 -307.70477 959.0 4.2108e+06
269.03146 -307.70477 959.0 4.2108e+06
274.0758 -307.70477 959.0 4.2108e+06
279.12012 -307.70477 959.0 4.2108e+06
284.16452 -307.70477 959.0 4.2108e+06
289.20886 -307.70477 959.0 4.2108e+06
294.25317 -307.70477 959.0 4.2108e+06
299.29752 -307.70477 959.0 4.2108e+06
304.34183 -307.70477 959.0 4.2108e+06
309.38623 -307.70477 959.0 4.2108e+06
314.43054 -307.70477 959.0 4.2108e+06
319.47488 -307.70477 959.0 4.2108e+06
324.5192 -307.70477 959.0 4.2108e+06
329.56354 -307.70477 959.0 4.2108e+06
335.65466 -308.66733 962.0 4.2108e+06
339.65225 -307.70477 959.0 4.2108e+06
344.6966 -307.70477 959.0 4.2108e+06
350.835 -308.66733 962.0 4.2108e+06
355.8951 -308.66733 962.0 4.2108e+06
359.82962 -307.70477 959.0 4.2108e+06
366.01538 -308.66733 962.0 4.2108e+06
371.07547 -308.66733 962.0 4.2108e+06
376.1356 -308.66733 962.0 4.2108e+06
381.1957 -308.66733 962.0 4.2108e+06
387.0589 -309.30905 964.0 4.2108e+06
392.12952 -309.30905 964.0 4.2108e+06
397.20013 -309.30905 964.0 4.2108e+06
402.27078 -309.30905 964.0 4.2108e+06
407.3414 -309.30905 964.0 4.2108e+06
412.4121 -309.30905 964.0 4.2108e+06
417.48273 -309.30905 964.0 4.2108e+06
422.55334 -309.30905 964.0 4.2108e+06
427.62396 -309.30905 964.0 4.2108e+06
434.04117 -310.27164 967.0 4.2108e+06
439.12762 -310.27164 967.0 4.2108e+06
442.83594 -309.30905 964.0 4.2108e+06
447.90656 -309.30905 964.0 4.2108e+06
452.97717 -309.30905 964.0 4.2108e+06
458.0478 -309.30905 964.0 4.2108e+06
460.71643 -307.70477 959.0 4.2108e+06
465.76074 -307.70477 959.0 4.2108e+06
-518.9867 -301.661 925.0 4.2108e+06
-513.0096 -301.00873 923.0 4.2108e+06
-508.15457 -301.00873 923.0 4.2108e+06
-501.66376 -300.0304 920.0 4.2108e+06
-496.82455 -300.0304 920.0 4.2108e+06
-491.98535 -300.0304 920.0 4.2108e+06
-487.14615 -300.0304 920.0 4.2108e+06
-483.87967 -301.00873 923.0 4.2108e+06
-477.46774 -300.0304 920.0 4.2108e+06
-472.62854 -300.0304 920.0 4.2108e+06
-467.78934 -300.0304 920.0 4.2108e+06
-461.94376 -299.37814 918.0 4.2108e+06
-458.11096 -300.0304 920.0 4.2108e+06
-453.27176 -300.0304 920.0 4.2108e+06
-449.8948 -301.00873 923.0 4.2108e+06
-445.03986 -301.00873 923.0 4.2108e+06
-440.1849 -301.00873 923.0 4.2108e+06
-435.32986 -301.00873 923.0 4.2108e+06
-430.4749 -301.00873 923.0 4.2108e+06
-425.6199 -301.00873 923.0 4.2108e+06
-420.76495 -301.00873 923.0 4.2108e+06
-416.8112 -301.661 925.0 4.2108e+06
-411.94568 -301.661 925.0 4.2108e+06
-407.08017 -301.661 925.0 4.2108e+06
-402.2147 -301.661 925.0 4.2108e+06
-398.63788 -302.63934 928.0 4.2108e+06
-393.75662 -302.63934 928.0 4.2108e+06
-388.8753 -302.63934 928.0 4.2108e+06
-383.99405 -302.63934 928.0 4.2108e+06
-379.11273 -302.63934 928.0 4.2108e+06
-374.23148 -302.63934 928.0 4.2108e+06
-370.1462 -303.2916 930.0 4.2108e+06
-365.25443 -303.2916 930.0 4.2108e+06
-360.3626 -303.2916 930.0 4.2108e+06
-356.61746 -304.26993 933.0 4.2108e+06
-350.579 -303.2916 930.0 4.2108e+06
-345.68723 -303.2916 930.0 4.2108e+06
-340.0625 -302.63934 928.0 4.2108e+06
-335.90363 -303.2916 930.0 4.2108e+06
-331.0118 -303.2916 930.0 4.2108e+06
-325.41867 -302.63934 928.0 4.2108e+06
-320.5374 -302.63934 928.0 4.2108e+06
-316.33643 -303.2916 930.0 4.2108e+06
-311.4446 -303.2916 930.0 4.2108e+06
-306.55283 -303.2916 930.0 4.2108e+06
-301.661 -303.2916 930.0 4.2108e+06
-297.72656 -304.26993 933.0 4.2108e+06
-292.81894 -304.26993 933.0 4.2108e+06
-286.9856 -303.2916 930.0 4.2108e+06
-282.09378 -303.2916 930.0 4.2108e+06
-278.09622 -304.26993 933.0 4.2108e+06
-273.18863 -304.26993 933.0 4.2108e+06
-268.28104 -304.26993 933.0 4.2108e+06
-263.37347 -304.26993 933.0 4.2108e+06
-259.01993 -304.9222 935.0 4.2108e+06
-254.10184 -304.9222 935.0 4.2108e+06
-249.18376 -304.9222 935.0 4.2108e+06
-244.26564 -304.9222 935.0 4.2108e+06
-240.11551 -305.90054 938.0 4.2108e+06
-235.18161 -305.90054 938.0 4.2108e+06
-229.51134 -304.9222 935.0 4.2108e+06
-224.59326 -304.9222 935.0 4.2108e+06
-219.67514 -304.9222 935.0 4.2108e+06
-214.75703 -304.9222 935.0 4.2108e+06
-209.83893 -304.9222 935.0 4.2108e+06
-204.92084 -304.9222 935.0 4.2108e+06
-200.00276 -304.9222 935.0 4.2108e+06
-195.71057 -305.90054 938.0 4.2108e+06
-190.77672 -305.90054 938.0 4.2108e+06
-185.24843 -304.9222 935.0 4.2108e+06
-180.33034 -304.9222 935.0 4.2108e+06
-175.41226 -304.9222 935.0 4.2108e+06
-170.49414 -304.9222 935.0 4.2108e+06
-165.57603 -304.9222 935.0 4.2108e+06
-160.65793 -304.9222 935.0 4.2108e+06
-155.73984 -304.9222 935.0 4.2108e+06
-150.82176 -304.9222 935.0 4.2108e+06
-145.90364 -304.9222 935.0 4.2108e+06
-140.98555 -304.9222 935.0 4.2108e+06
-136.50401 -305.90054 938.0 4.2108e+06
-131.57014 -305.90054 938.0 4.2108e+06
-126.63627 -305.90054 938.0 4.2108e+06
-121.70237 -305.90054 938.0 4.2108e+06
-116.39504 -304.9222 935.0 4.2108e+06
-111.47693 -304.9222 935.0 4.2108e+06
-106.900734 -305.90054 938.0 4.2108e+06
-101.966866 -305.90054 938.0 4.2108e+06
-97.032974 -305.90054 938.0 4.2108e+06
-92.0991 -305.90054 938.0 4.2108e+06
-87.16521 -305.90054 938.0 4.2108e+06
-82.23134 -305.90054 938.0 4.2108e+06
-77.46228 -306.5528 940.0 4.2108e+06
-72.749306 -307.53113 943.0 4.2108e+06
-67.78913 -307.53113 943.0 4.2108e+06
-62.629055 -306.5528 940.0 4.2108e+06
-57.86877 -307.53113 943.0 4.2108e+06
-52.74028 -306.5528 940.0 4.2108e+06
-47.795864 -306.5528 940.0 4.2108e+06
-42.85147 -306.5528 940.0 4.2108e+06
-37.907055 -306.5528 940.0 4.2108e+06
-32.96267 -306.5528 940.0 4.2108e+06
-27.958666 -305.90054 938.0 4.2108e+06
-23.024767 -305.90054 938.0 4.2108e+06
-18.129475 -306.5528 940.0 4.2108e+06
-13.227135 -307.53113 943.0 4.2108e+06
-8.266967 -307.53113 943.0 4.2108e+06
-3.3067994 -307.53113 943.0 4.2108e+06
1.6533681 -307.53113 943.0 4.2108e+06
6.613599 -307.53113 943.0 4.2108e+06
11.573766 -307.53113 943.0 4.2108e+06
16.533934 -307.53113 943.0 4.2108e+06
21.425722 -306.5528 940.0 4.2108e+06
26.45427 -307.53113 943.0 4.2108e+06
31.4145 -307.53113 943.0 4.2108e+06
36.37467 -307.53113 943.0 4.2108e+06
41.334835 -307.53113 943.0 4.2108e+06
46.295002 -307.53113 943.0 4.2108e+06
51.418232 -308.5095 946.0 4.2108e+06
56.394238 -308.5095 946.0 4.2108e+06
61.370186 -308.5095 946.0 4.2108e+06
66.34614 -308.5095 946.0 4.2108e+06
71.32208 -308.5095 946.0 4.2108e+06
76.459335 -309.16174 948.0 4.2108e+06
81.27404 -308.5095 946.0 4.2108e+06
86.249985 -308.5095 946.0 4.2108e+06
91.22594 -308.5095 946.0 4.2108e+06
96.20188 -308.5095 946.0 4.2108e+06
101.39173 -309.16174 948.0 4.2108e+06
106.37827 -309.16174 948.0 4.2108e+06
111.36473 -309.16174 948.0 4.2108e+06
116.351204 -309.16174 948.0 4.2108e+06
121.33768 -309.16174 948.0 4.2108e+06
126.324135 -309.16174 948.0 4.2108e+06
131.03365 -308.5095 946.0 4.2108e+06
136.29713 -309.16174 948.0 4.2108e+06
140.98553 -308.5095 946.0 4.2108e+06
146.27008 -309.16174 948.0 4.2108e+06
151.25655 -309.16174 948.0 4.2108e+06
156.24307 -309.16174 948.0 4.2108e+06
161.22954 -309.16174 948.0 4.2108e+06
165.86534 -308.5095 946.0 4.2108e+06
171.20247 -309.16174 948.0 4.2108e+06
176.7465 -310.1401 951.0 4.2108e+06
181.17546 -309.16174 948.0 4.2108e+06
186.75107 -310.1401 951.0 4.2108e+06
191.1484 -309.16174 948.0 4.2108e+06
196.13487 -309.16174 948.0 4.2108e+06
201.12135 -309.16174 948.0 4.2108e+06
206.10786 -309.16174 948.0 4.2108e+06
211.76237 -310.1401 951.0 4.2108e+06
216.7646 -310.1401 951.0 4.2108e+06
221.76685 -310.1401 951.0 4.2108e+06
226.7691 -310.1401 951.0 4.2108e+06
231.77141 -310.1401 951.0 4.2108e+06
236.77367 -310.1401 951.0 4.2108e+06
241.77591 -310.1401 951.0 4.2108e+06
246.77815 -310.1401 951.0 4.2108e+06
251.78041 -310.1401 951.0 4.2108e+06
256.7827 -310.1401 951.0 4.2108e+06
262.61078 -311.11847 954.0 4.2108e+06
267.6288 -311.11847 954.0 4.2108e+06
272.64685 -311.11847 954.0 4.2108e+06
277.66486 -311.11847 954.0 4.2108e+06
282.68295 -311.11847 954.0 4.2108e+06
288.30414 -311.7707 956.0 4.2108e+06
292.71902 -311.11847 954.0 4.2108e+06
296.80075 -310.1401 951.0 4.2108e+06
302.75507 -311.11847 954.0 4.2108e+06
307.77316 -311.11847 954.0 4.2108e+06
312.7912 -311.11847 954.0 4.2108e+06
317.8092 -311.11847 954.0 4.2108e+06
322.82724 -311.11847 954.0 4.2108e+06
328.53256 -311.7707 956.0 4.2108e+06
333.5612 -311.7707 956.0 4.2108e+06
338.58975 -311.7707 956.0 4.2108e+06
343.6183 -311.7707 956.0 4.2108e+06
348.64682 -311.7707 956.0 4.2108e+06
353.67535 -311.7707 956.0 4.2108e+06
358.704 -311.7707 956.0 4.2108e+06
363.73254 -311.7707 956.0 4.2108e+06
368.76108 -311.7707 956.0 4.2108e+06
374.96262 -312.74908 959.0 4.2108e+06
380.00693 -312.74908 959.0 4.2108e+06
385.05133 -312.74908 959.0 4.2108e+06
391.31598 -313.72745 962.0 4.2108e+06
395.13998 -312.74908 959.0 4.2108e+06
400.1843 -312.74908 959.0 4.2108e+06
405.22864 -312.74908 959.0 4.2108e+06
411.55646 -313.72745 962.0 4.2108e+06
416.61658 -313.72745 962.0 4.2108e+06
420.3617 -312.74908 959.0 4.2108e+06
425.406 -312.74908 959.0 4.2108e+06
431.7969 -313.72745 962.0 4.2108e+06
436.85706 -313.72745 962.0 4.2108e+06
441.91718 -313.72745 962.0 4.2108e+06
446.9773 -313.72745 962.0 4.2108e+06
452.03738 -313.72745 962.0 4.2108e+06
457.0975 -313.72745 962.0 4.2108e+06
459.2752 -311.7707 956.0 4.2108e+06
464.30374 -311.7707 956.0 4.2108e+06
-517.86456 -305.86377 923.0 4.2108e+06
-511.34216 -304.8696 920.0 4.2108e+06
-505.40186 -304.20685 918.0 4.2108e+06
-498.93732 -303.2127 915.0 4.2108e+06
-494.12442 -303.2127 915.0 4.2108e+06
-488.24197 -302.54996 913.0 4.2108e+06
-484.49863 -303.2127 915.0 4.2108e+06
-479.68573 -303.2127 915.0 4.2108e+06
-474.8728 -303.2127 915.0 4.2108e+06
-470.0599 -303.2127 915.0 4.2108e+06
-464.23007 -302.54996 913.0 4.2108e+06
-460.4341 -303.2127 915.0 4.2108e+06
-455.62122 -303.2127 915.0 4.2108e+06
-450.80832 -303.2127 915.0 4.2108e+06
-447.45767 -304.20685 918.0 4.2108e+06
-443.59335 -304.8696 920.0 4.2108e+06
-437.80035 -304.20685 918.0 4.2108e+06
-433.91495 -304.8696 920.0 4.2108e+06
-429.07574 -304.8696 920.0 4.2108e+06
-424.23654 -304.8696 920.0 4.2108e+06
-418.48563 -304.20685 918.0 4.2108e+06
-414.55814 -304.8696 920.0 4.2108e+06
-411.05496 -305.86377 923.0 4.2108e+06
-406.2 -305.86377 923.0 4.2108e+06
-401.345 -305.86377 923.0 4.2108e+06
-396.49005 -305.86377 923.0 4.2108e+06
-391.6351 -305.86377 923.0 4.2108e+06
-386.78006 -305.86377 923.0 4.2108e+06
-381.9251 -305.86377 923.0 4.2108e+06
-377.0701 -305.86377 923.0 4.2108e+06
-372.21515 -305.86377 923.0 4.2108e+06
-368.1562 -306.5265 925.0 4.2108e+06
-363.29068 -306.5265 925.0 4.2108e+06
-358.42517 -306.5265 925.0 4.2108e+06
-355.47083 -308.1834 930.0 4.2108e+06
-349.82507 -307.52066 928.0 4.2108e+06
-344.94382 -307.52066 928.0 4.2108e+06
-338.96317 -306.5265 925.0 4.2108e+06
-335.18124 -307.52066 928.0 4.2108e+06
-330.29993 -307.52066 928.0 4.2108e+06
-325.41867 -307.52066 928.0 4.2108e+06
-320.5374 -307.52066 928.0 4.2108e+06
-314.63568 -306.5265 925.0 4.2108e+06
-309.77017 -306.5265 925.0 4.2108e+06
-304.90466 -306.5265 925.0 4.2108e+06
-301.01227 -307.52066 928.0 4.2108e+06
-296.7692 -308.1834 930.0 4.2108e+06
-291.8774 -308.1834 930.0 4.2108e+06
-286.9856 -308.1834 930.0 4.2108e+06
-281.48715 -307.52066 928.0 4.2108e+06
-276.60587 -307.52066 928.0 4.2108e+06
-271.7246 -307.52066 928.0 4.2108e+06
-266.8433 -307.52066 928.0 4.2108e+06
-262.5266 -308.1834 930.0 4.2108e+06
-257.6348 -308.1834 930.0 4.2108e+06
-252.74301 -308.1834 930.0 4.2108e+06
-247.85123 -308.1834 930.0 4.2108e+06
-242.95941 -308.1834 930.0 4.2108e+06
-238.06761 -308.1834 930.0 4.2108e+06
-233.1758 -308.1834 930.0 4.2108e+06
-228.28401 -308.1834 930.0 4.2108e+06
-223.39223 -308.1834 930.0 4.2108e+06
-218.50041 -308.1834 930.0 4.2108e+06
-213.60861 -308.1834 930.0 4.2108e+06
-209.39008 -309.17755 933.0 4.2108e+06
-204.48251 -309.17755 933.0 4.2108e+06
-199.57494 -309.17755 933.0 4.2108e+06
-195.08464 -309.8403 935.0 4.2108e+06
-190.16653 -309.8403 935.0 4.2108e+06
-184.85217 -309.17755 933.0 4.2108e+06
-179.36601 -308.1834 930.0 4.2108e+06
-175.03703 -309.17755 933.0 4.2108e+06
-170.12943 -309.17755 933.0 4.2108e+06
-165.22188 -309.17755 933.0 4.2108e+06
-159.79878 -308.1834 930.0 4.2108e+06
-155.40671 -309.17755 933.0 4.2108e+06
-150.49913 -309.17755 933.0 4.2108e+06
-145.59154 -309.17755 933.0 4.2108e+06
-140.98555 -309.8403 935.0 4.2108e+06
-136.06743 -309.8403 935.0 4.2108e+06
-130.8688 -309.17755 933.0 4.2108e+06
-125.961235 -309.17755 933.0 4.2108e+06
-121.313126 -309.8403 935.0 4.2108e+06
-116.39504 -309.8403 935.0 4.2108e+06
-111.47693 -309.8403 935.0 4.2108e+06
-106.55884 -309.8403 935.0 4.2108e+06
-101.64075 -309.8403 935.0 4.2108e+06
-96.722626 -309.8403 935.0 4.2108e+06
-91.80454 -309.8403 935.0 4.2108e+06
-86.88643 -309.8403 935.0 4.2108e+06
-81.96834 -309.8403 935.0 4.2108e+06
-77.05025 -309.8403 935.0 4.2108e+06
-72.36357 -310.83447 938.0 4.2108e+06
-67.4297 -310.83447 938.0 4.2108e+06
-62.4958 -310.83447 938.0 4.2108e+06
-57.561935 -310.83447 938.0 4.2108e+06
-52.62807 -310.83447 938.0 4.2108e+06
-47.694168 -310.83447 938.0 4.2108e+06
-42.7603 -310.83447 938.0 4.2108e+06
-37.8264 -310.83447 938.0 4.2108e+06
-32.892536 -310.83447 938.0 4.2108e+06
-27.869247 -309.8403 935.0 4.2108e+06
-22.951128 -309.8403 935.0 4.2108e+06
-18.033041 -309.8403 935.0 4.2108e+06
-13.1570015 -310.83447 938.0 4.2108e+06
-8.223134 -310.83447 938.0 4.2108e+06
-3.2892659 -310.83447 938.0 4.2108e+06
1.6446016 -310.83447 938.0 4.2108e+06
6.5785317 -310.83447 938.0 4.2108e+06
11.5124 -310.83447 938.0 4.2108e+06
16.446268 -310.83447 938.0 4.2108e+06
21.311754 -309.8403 935.0 4.2108e+06
26.314003 -310.83447 938.0 4.2108e+06
31.247932 -310.83447 938.0 4.2108e+06
36.1818 -310.83447 938.0 4.2108e+06
41.203335 -311.4972 940.0 4.2108e+06
46.14772 -311.4972 940.0 4.2108e+06
51.09211 -311.4972 940.0 4.2108e+06
56.03656 -311.4972 940.0 4.2108e+06
60.98095 -311.4972 940.0 4.2108e+06
66.135735 -312.49136 943.0 4.2108e+06
71.0959 -312.49136 943.0 4.2108e+06
76.05607 -312.49136 943.0 4.2108e+06
81.016304 -312.49136 943.0 4.2108e+06
85.97646 -312.49136 943.0 4.2108e+06
91.22594 -313.4855 946.0 4.2108e+06
96.20188 -313.4855 946.0 4.2108e+06
100.856964 -312.49136 943.0 4.2108e+06
105.81721 -312.49136 943.0 4.2108e+06
111.12979 -313.4855 946.0 4.2108e+06
116.105736 -313.4855 946.0 4.2108e+06
121.08169 -313.4855 946.0 4.2108e+06
126.05763 -313.4855 946.0 4.2108e+06
130.6181 -312.49136 943.0 4.2108e+06
135.57826 -312.49136 943.0 4.2108e+06
140.53844 -312.49136 943.0 4.2108e+06
145.49861 -312.49136 943.0 4.2108e+06
150.45877 -312.49136 943.0 4.2108e+06
155.419 -312.49136 943.0 4.2108e+06
160.37917 -312.49136 943.0 4.2108e+06
165.33934 -312.49136 943.0 4.2108e+06
170.29951 -312.49136 943.0 4.2108e+06
175.25967 -312.49136 943.0 4.2108e+06
180.2199 -312.49136 943.0 4.2108e+06
185.18007 -312.49136 943.0 4.2108e+06
190.14024 -312.49136 943.0 4.2108e+06
195.1004 -312.49136 943.0 4.2108e+06
200.06058 -312.49136 943.0 4.2108e+06
205.67305 -313.4855 946.0 4.2108e+06
210.649 -313.4855 946.0 4.2108e+06
215.62494 -313.4855 946.0 4.2108e+06
221.06728 -314.14825 948.0 4.2108e+06
225.57684 -313.4855 946.0 4.2108e+06
230.55284 -313.4855 946.0 4.2108e+06
235.52881 -313.4855 946.0 4.2108e+06
241.01321 -314.14825 948.0 4.2108e+06
245.99968 -314.14825 948.0 4.2108e+06
250.98615 -314.14825 948.0 4.2108e+06
255.97267 -314.14825 948.0 4.2108e+06
260.95914 -314.14825 948.0 4.2108e+06
265.94562 -314.14825 948.0 4.2108e+06
270.93207 -314.14825 948.0 4.2108e+06
276.79172 -315.1424 951.0 4.2108e+06
281.794 -315.1424 951.0 4.2108e+06
285.89154 -314.14825 948.0 4.2108e+06
291.79852 -315.1424 951.0 4.2108e+06
295.86447 -314.14825 948.0 4.2108e+06
300.85095 -314.14825 948.0 4.2108e+06
305.83746 -314.14825 948.0 4.2108e+06
310.82394 -314.14825 948.0 4.2108e+06
315.81042 -314.14825 948.0 4.2108e+06
320.79688 -314.14825 948.0 4.2108e+06
325.78336 -314.14825 948.0 4.2108e+06
330.76987 -314.14825 948.0 4.2108e+06
336.81888 -315.1424 951.0 4.2108e+06
341.8211 -315.1424 951.0 4.2108e+06
347.91745 -316.13654 954.0 4.2108e+06
351.8256 -315.1424 951.0 4.2108e+06
356.82794 -315.1424 951.0 4.2108e+06
361.83017 -315.1424 951.0 4.2108e+06
367.98962 -316.13654 954.0 4.2108e+06
373.7896 -316.7993 956.0 4.2108e+06
378.81815 -316.7993 956.0 4.2108e+06
383.8468 -316.7993 956.0 4.2108e+06
388.87534 -316.7993 956.0 4.2108e+06
393.90387 -316.7993 956.0 4.2108e+06
398.93243 -316.7993 956.0 4.2108e+06
403.96097 -316.7993 956.0 4.2108e+06
408.9896 -316.7993 956.0 4.2108e+06
415.31735 -317.79343 959.0 4.2108e+06
419.0467 -316.7993 956.0 4.2108e+06
424.07523 -316.7993 956.0 4.2108e+06
429.10376 -316.7993 956.0 4.2108e+06
435.49472 -317.79343 959.0 4.2108e+06
440.53906 -317.79343 959.0 4.2108e+06
445.58337 -317.79343 959.0 4.2108e+06
450.62772 -317.79343 959.0 4.2108e+06
455.67203 -317.79343 959.0 4.2108e+06
456.87314 -315.1424 951.0 4.2108e+06
460.41837 -314.14825 948.0 4.2108e+06
-515.0592 -309.0355 918.0 4.2108e+06
-508.5631 -308.02557 915.0 4.2108e+06
-503.7502 -308.02557 915.0 4.2108e+06
-497.84677 -307.3523 913.0 4.2108e+06
-493.04434 -307.3523 913.0 4.2108e+06
-486.6377 -306.34238 910.0 4.2108e+06
-481.85107 -306.34238 910.0 4.2108e+06
-478.6372 -307.3523 913.0 4.2108e+06
-473.83487 -307.3523 913.0 4.2108e+06
-469.03244 -307.3523 913.0 4.2108e+06
-462.70468 -306.34238 910.0 4.2108e+06
-457.9181 -306.34238 910.0 4.2108e+06
-453.13147 -306.34238 910.0 4.2108e+06
-449.82297 -307.3523 913.0 4.2108e+06
-445.02054 -307.3523 913.0 4.2108e+06
-440.21817 -307.3523 913.0 4.2108e+06
-435.41583 -307.3523 913.0 4.2108e+06
-431.5567 -308.02557 915.0 4.2108e+06
-426.7438 -308.02557 915.0 4.2108e+06
-421.9309 -308.02557 915.0 4.2108e+06
-417.118 -308.02557 915.0 4.2108e+06
-412.3051 -308.02557 915.0 4.2108e+06
-408.82825 -309.0355 918.0 4.2108e+06
-403.9996 -309.0355 918.0 4.2108e+06
-400.04056 -309.70877 920.0 4.2108e+06
-395.20135 -309.70877 920.0 4.2108e+06
-390.36215 -309.70877 920.0 4.2108e+06
-384.68484 -309.0355 918.0 4.2108e+06
-380.68375 -309.70877 920.0 4.2108e+06
-375.84454 -309.70877 920.0 4.2108e+06
-372.21515 -310.71872 923.0 4.2108e+06
-367.3602 -310.71872 923.0 4.2108e+06
-362.5052 -310.71872 923.0 4.2108e+06
-357.6502 -310.71872 923.0 4.2108e+06
-352.7952 -310.71872 923.0 4.2108e+06
-348.69418 -311.39197 925.0 4.2108e+06
-343.82867 -311.39197 925.0 4.2108e+06
-338.2303 -310.71872 923.0 4.2108e+06
-333.3753 -310.71872 923.0 4.2108e+06
-327.45255 -309.70877 920.0 4.2108e+06
-322.61334 -309.70877 920.0 4.2108e+06
-318.8104 -310.71872 923.0 4.2108e+06
-312.93494 -309.70877 920.0 4.2108e+06
-309.10043 -310.71872 923.0 4.2108e+06
-304.2454 -310.71872 923.0 4.2108e+06
-299.39044 -310.71872 923.0 4.2108e+06
-295.17368 -311.39197 925.0 4.2108e+06
-290.30817 -311.39197 925.0 4.2108e+06
-285.4427 -311.39197 925.0 4.2108e+06
-280.57715 -311.39197 925.0 4.2108e+06
-275.71167 -311.39197 925.0 4.2108e+06
-270.26056 -310.71872 923.0 4.2108e+06
-265.98068 -311.39197 925.0 4.2108e+06
-261.11517 -311.39197 925.0 4.2108e+06
-256.24966 -311.39197 925.0 4.2108e+06
-252.19948 -312.40192 928.0 4.2108e+06
-246.51869 -311.39197 925.0 4.2108e+06
-242.4369 -312.40192 928.0 4.2108e+06
-236.78767 -311.39197 925.0 4.2108e+06
-232.67435 -312.40192 928.0 4.2108e+06
-227.79308 -312.40192 928.0 4.2108e+06
-222.9118 -312.40192 928.0 4.2108e+06
-218.0305 -312.40192 928.0 4.2108e+06
-213.14925 -312.40192 928.0 4.2108e+06
-208.26794 -312.40192 928.0 4.2108e+06
-203.38667 -312.40192 928.0 4.2108e+06
-198.5054 -312.40192 928.0 4.2108e+06
-193.6241 -312.40192 928.0 4.2108e+06
-189.14961 -313.07516 930.0 4.2108e+06
-183.86154 -312.40192 928.0 4.2108e+06
-178.98027 -312.40192 928.0 4.2108e+06
-174.099 -312.40192 928.0 4.2108e+06
-169.2177 -312.40192 928.0 4.2108e+06
-164.33644 -312.40192 928.0 4.2108e+06
-159.45514 -312.40192 928.0 4.2108e+06
-154.57387 -312.40192 928.0 4.2108e+06
-149.6926 -312.40192 928.0 4.2108e+06
-144.8113 -312.40192 928.0 4.2108e+06
-139.93004 -312.40192 928.0 4.2108e+06
-135.04874 -312.40192 928.0 4.2108e+06
-130.16747 -312.40192 928.0 4.2108e+06
-125.55621 -313.07516 930.0 4.2108e+06
-120.6644 -313.07516 930.0 4.2108e+06
-115.77261 -313.07516 930.0 4.2108e+06
-110.8808 -313.07516 930.0 4.2108e+06
-105.989006 -313.07516 930.0 4.2108e+06
-101.09721 -313.07516 930.0 4.2108e+06
-96.2054 -313.07516 930.0 4.2108e+06
-91.313614 -313.07516 930.0 4.2108e+06
-86.42179 -313.07516 930.0 4.2108e+06
-81.53001 -313.07516 930.0 4.2108e+06
-76.638214 -313.07516 930.0 4.2108e+06
-71.97784 -314.0851 933.0 4.2108e+06
-67.21404 -314.75836 935.0 4.2108e+06
-62.162666 -314.0851 933.0 4.2108e+06
-57.377834 -314.75836 935.0 4.2108e+06
-52.459747 -314.75836 935.0 4.2108e+06
-47.54163 -314.75836 935.0 4.2108e+06
-42.62354 -314.75836 935.0 4.2108e+06
-37.70542 -314.75836 935.0 4.2108e+06
-32.787334 -314.75836 935.0 4.2108e+06
-27.809633 -314.0851 933.0 4.2108e+06
-22.902033 -314.0851 933.0 4.2108e+06
-17.994469 -314.0851 933.0 4.2108e+06
-13.086868 -314.0851 933.0 4.2108e+06
-8.196834 -314.75836 935.0 4.2108e+06
-3.2717326 -314.0851 933.0 4.2108e+06
1.635835 -314.0851 933.0 4.2108e+06
6.543465 -314.0851 933.0 4.2108e+06
11.451033 -314.0851 933.0 4.2108e+06
16.393667 -314.75836 935.0 4.2108e+06
21.311754 -314.75836 935.0 4.2108e+06
26.229841 -314.75836 935.0 4.2108e+06
31.147993 -314.75836 935.0 4.2108e+06
36.066082 -314.75836 935.0 4.2108e+06
40.98417 -314.75836 935.0 4.2108e+06
45.902256 -314.75836 935.0 4.2108e+06
50.820343 -314.75836 935.0 4.2108e+06
55.738495 -314.75836 935.0 4.2108e+06
60.851204 -315.7683 938.0 4.2108e+06
65.92534 -316.4416 940.0 4.2108e+06
70.86972 -316.4416 940.0 4.2108e+06
75.6528 -315.7683 938.0 4.2108e+06
80.58674 -315.7683 938.0 4.2108e+06
85.70294 -316.4416 940.0 4.2108e+06
90.64734 -316.4416 940.0 4.2108e+06
95.59173 -316.4416 940.0 4.2108e+06
100.53611 -316.4416 940.0 4.2108e+06
105.48056 -316.4416 940.0 4.2108e+06
110.77737 -317.4515 943.0 4.2108e+06
115.36934 -316.4416 940.0 4.2108e+06
120.31373 -316.4416 940.0 4.2108e+06
125.65787 -317.4515 943.0 4.2108e+06
130.20256 -316.4416 940.0 4.2108e+06
135.14694 -316.4416 940.0 4.2108e+06
139.79327 -315.7683 938.0 4.2108e+06
145.03572 -316.4416 940.0 4.2108e+06
149.98012 -316.4416 940.0 4.2108e+06
154.92456 -316.4416 940.0 4.2108e+06
159.86896 -316.4416 940.0 4.2108e+06
164.81334 -316.4416 940.0 4.2108e+06
169.75772 -316.4416 940.0 4.2108e+06
174.70212 -316.4416 940.0 4.2108e+06
179.64656 -316.4416 940.0 4.2108e+06
184.59096 -316.4416 940.0 4.2108e+06
189.53534 -316.4416 940.0 4.2108e+06
194.47972 -316.4416 940.0 4.2108e+06
199.42412 -316.4416 940.0 4.2108e+06
205.0208 -317.4515 943.0 4.2108e+06
209.31296 -316.4416 940.0 4.2108e+06
214.94115 -317.4515 943.0 4.2108e+06
219.9013 -317.4515 943.0 4.2108e+06
224.86148 -317.4515 943.0 4.2108e+06
229.8217 -317.4515 943.0 4.2108e+06
234.78188 -317.4515 943.0 4.2108e+06
239.74203 -317.4515 943.0 4.2108e+06
244.70221 -317.4515 943.0 4.2108e+06
249.66238 -317.4515 943.0 4.2108e+06
254.6226 -317.4515 943.0 4.2108e+06
259.58276 -317.4515 943.0 4.2108e+06
265.38455 -318.4614 946.0 4.2108e+06
270.36047 -318.4614 946.0 4.2108e+06
275.33643 -318.4614 946.0 4.2108e+06
279.4235 -317.4515 943.0 4.2108e+06
285.2884 -318.4614 946.0 4.2108e+06
290.26434 -318.4614 946.0 4.2108e+06
294.304 -317.4515 943.0 4.2108e+06
300.21622 -318.4614 946.0 4.2108e+06
305.19226 -318.4614 946.0 4.2108e+06
310.1682 -318.4614 946.0 4.2108e+06
315.81042 -319.1347 948.0 4.2108e+06
320.79688 -319.1347 948.0 4.2108e+06
325.78336 -319.1347 948.0 4.2108e+06
330.07205 -318.4614 946.0 4.2108e+06
335.75635 -319.1347 948.0 4.2108e+06
340.7428 -319.1347 948.0 4.2108e+06
346.82336 -320.14462 951.0 4.2108e+06
350.71576 -319.1347 948.0 4.2108e+06
355.70227 -319.1347 948.0 4.2108e+06
360.68875 -319.1347 948.0 4.2108e+06
366.83243 -320.14462 951.0 4.2108e+06
371.83466 -320.14462 951.0 4.2108e+06
376.83688 -320.14462 951.0 4.2108e+06
381.83923 -320.14462 951.0 4.2108e+06
386.84146 -320.14462 951.0 4.2108e+06
391.84372 -320.14462 951.0 4.2108e+06
396.84595 -320.14462 951.0 4.2108e+06
401.8482 -320.14462 951.0 4.2108e+06
405.56708 -319.1347 948.0 4.2108e+06
411.85278 -320.14462 951.0 4.2108e+06
416.855 -320.14462 951.0 4.2108e+06
423.18805 -321.15454 954.0 4.2108e+06
428.20605 -321.15454 954.0 4.2108e+06
433.22415 -321.15454 954.0 4.2108e+06
436.86407 -320.14462 951.0 4.2108e+06
441.8663 -320.14462 951.0 4.2108e+06
446.86856 -320.14462 951.0 4.2108e+06
451.8708 -320.14462 951.0 4.2108e+06
454.47107 -318.4614 946.0 4.2108e+06
459.44702 -318.4614 946.0 4.2108e+06
-512.2539 -312.1547 913.0 4.2108e+06
-507.45154 -312.1547 913.0 4.2108e+06
-502.6491 -312.1547 913.0 4.2108e+06
-497.84677 -312.1547 913.0 4.2108e+06
-491.4243 -311.129 910.0 4.2108e+06
-484.49863 -309.7614 906.0 4.2108e+06
-479.7331 -309.7614 906.0 4.2108e+06
-474.9675 -309.7614 906.0 4.2108e+06
-471.23993 -310.4452 908.0 4.2108e+06
-465.43637 -309.7614 906.0 4.2108e+06
-461.68774 -310.4452 908.0 4.2108e+06
-455.90527 -309.7614 906.0 4.2108e+06
-451.1397 -309.7614 906.0 4.2108e+06
-446.3741 -309.7614 906.0 4.2108e+06
-442.5834 -310.4452 908.0 4.2108e+06
-438.77167 -311.129 910.0 4.2108e+06
-435.41583 -312.1547 913.0 4.2108e+06
-430.6134 -312.1547 913.0 4.2108e+06
-424.4119 -311.129 910.0 4.2108e+06
-419.62527 -311.129 910.0 4.2108e+06
-414.83868 -311.129 910.0 4.2108e+06
-410.0521 -311.129 910.0 4.2108e+06
-406.6015 -312.1547 913.0 4.2108e+06
-402.67932 -312.8385 915.0 4.2108e+06
-397.86642 -312.8385 915.0 4.2108e+06
-393.05353 -312.8385 915.0 4.2108e+06
-388.2406 -312.8385 915.0 4.2108e+06
-383.4277 -312.8385 915.0 4.2108e+06
-378.6148 -312.8385 915.0 4.2108e+06
-373.8019 -312.8385 915.0 4.2108e+06
-370.19882 -313.8642 918.0 4.2108e+06
-366.16614 -314.548 920.0 4.2108e+06
-361.32693 -314.548 920.0 4.2108e+06
-356.48773 -314.548 920.0 4.2108e+06
-351.64856 -314.548 920.0 4.2108e+06
-346.80936 -314.548 920.0 4.2108e+06
-341.97015 -314.548 920.0 4.2108e+06
-336.39804 -313.8642 918.0 4.2108e+06
-331.5694 -313.8642 918.0 4.2108e+06
-326.74066 -313.8642 918.0 4.2108e+06
-321.91202 -313.8642 918.0 4.2108e+06
-317.08337 -313.8642 918.0 4.2108e+06
-312.25464 -313.8642 918.0 4.2108e+06
-307.426 -313.8642 918.0 4.2108e+06
-302.59726 -313.8642 918.0 4.2108e+06
-297.76862 -313.8642 918.0 4.2108e+06
-292.93997 -313.8642 918.0 4.2108e+06
-288.73895 -314.548 920.0 4.2108e+06
-283.89975 -314.548 920.0 4.2108e+06
-279.97052 -315.5737 923.0 4.2108e+06
-274.22134 -314.548 920.0 4.2108e+06
-269.38217 -314.548 920.0 4.2108e+06
-264.54294 -314.548 920.0 4.2108e+06
-260.55063 -315.5737 923.0 4.2108e+06
-255.69562 -315.5737 923.0 4.2108e+06
-250.84064 -315.5737 923.0 4.2108e+06
-245.98567 -315.5737 923.0 4.2108e+06
-241.13066 -315.5737 923.0 4.2108e+06
-236.27571 -315.5737 923.0 4.2108e+06
-231.92216 -316.2575 925.0 4.2108e+06
-227.05667 -316.2575 925.0 4.2108e+06
-222.1912 -316.2575 925.0 4.2108e+06
-217.32567 -316.2575 925.0 4.2108e+06
-212.00081 -315.5737 923.0 4.2108e+06
-207.14581 -315.5737 923.0 4.2108e+06
-202.29085 -315.5737 923.0 4.2108e+06
-197.43587 -315.5737 923.0 4.2108e+06
-192.99817 -316.2575 925.0 4.2108e+06
-188.13268 -316.2575 925.0 4.2108e+06
-182.87091 -315.5737 923.0 4.2108e+06
-178.40167 -316.2575 925.0 4.2108e+06
-173.5362 -316.2575 925.0 4.2108e+06
-168.67067 -316.2575 925.0 4.2108e+06
-163.45102 -315.5737 923.0 4.2108e+06
-158.93965 -316.2575 925.0 4.2108e+06
-154.07417 -316.2575 925.0 4.2108e+06
-149.2087 -316.2575 925.0 4.2108e+06
-144.34317 -316.2575 925.0 4.2108e+06
-139.47768 -316.2575 925.0 4.2108e+06
-134.61217 -316.2575 925.0 4.2108e+06
-129.74667 -316.2575 925.0 4.2108e+06
-125.2862 -317.2832 928.0 4.2108e+06
-120.01566 -316.2575 925.0 4.2108e+06
-115.15018 -316.2575 925.0 4.2108e+06
-110.28466 -316.2575 925.0 4.2108e+06
-105.76107 -317.2832 928.0 4.2108e+06
-100.8798 -317.2832 928.0 4.2108e+06
-95.998505 -317.2832 928.0 4.2108e+06
-90.82268 -316.2575 925.0 4.2108e+06
-86.23594 -317.2832 928.0 4.2108e+06
-81.35467 -317.2832 928.0 4.2108e+06
-76.4734 -317.2832 928.0 4.2108e+06
-71.5921 -317.2832 928.0 4.2108e+06
-66.71083 -317.2832 928.0 4.2108e+06
-61.962788 -317.967 930.0 4.2108e+06
-57.071003 -317.967 930.0 4.2108e+06
-52.347538 -318.9927 933.0 4.2108e+06
-47.439938 -318.9927 933.0 4.2108e+06
-42.395607 -317.967 930.0 4.2108e+06
-37.503788 -317.967 930.0 4.2108e+06
-32.612 -317.967 930.0 4.2108e+06
-27.6606 -317.2832 928.0 4.2108e+06
-22.779303 -317.2832 928.0 4.2108e+06
-17.898033 -317.2832 928.0 4.2108e+06
-13.016735 -317.2832 928.0 4.2108e+06
-8.135467 -317.2832 928.0 4.2108e+06
-3.2612123 -317.967 930.0 4.2108e+06
1.6270685 -317.2832 928.0 4.2108e+06
6.5083985 -317.2832 928.0 4.2108e+06
11.414213 -317.967 930.0 4.2108e+06
16.3586 -318.9927 933.0 4.2108e+06
21.266169 -318.9927 933.0 4.2108e+06
26.173737 -318.9927 933.0 4.2108e+06
31.081366 -318.9927 933.0 4.2108e+06
35.988937 -318.9927 933.0 4.2108e+06
40.8965 -318.9927 933.0 4.2108e+06
45.804066 -318.9927 933.0 4.2108e+06
50.820343 -319.6765 935.0 4.2108e+06
55.738495 -319.6765 935.0 4.2108e+06
60.65658 -319.6765 935.0 4.2108e+06
65.57467 -319.6765 935.0 4.2108e+06
70.49276 -319.6765 935.0 4.2108e+06
75.41084 -319.6765 935.0 4.2108e+06
80.328995 -319.6765 935.0 4.2108e+06
85.24708 -319.6765 935.0 4.2108e+06
90.16517 -319.6765 935.0 4.2108e+06
95.08326 -319.6765 935.0 4.2108e+06
100.00134 -319.6765 935.0 4.2108e+06
105.25614 -320.7022 938.0 4.2108e+06
110.19 -320.7022 938.0 4.2108e+06
115.12387 -320.7022 938.0 4.2108e+06
119.67376 -319.6765 935.0 4.2108e+06
124.59184 -319.6765 935.0 4.2108e+06
129.51 -319.6765 935.0 4.2108e+06
134.42809 -319.6765 935.0 4.2108e+06
139.04811 -318.9927 933.0 4.2108e+06
144.26425 -319.6765 935.0 4.2108e+06
149.18236 -319.6765 935.0 4.2108e+06
154.1005 -319.6765 935.0 4.2108e+06
159.01859 -319.6765 935.0 4.2108e+06
163.93668 -319.6765 935.0 4.2108e+06
169.39655 -320.7022 938.0 4.2108e+06
173.77286 -319.6765 935.0 4.2108e+06
178.691 -319.6765 935.0 4.2108e+06
183.60909 -319.6765 935.0 4.2108e+06
189.13208 -320.7022 938.0 4.2108e+06
194.06595 -320.7022 938.0 4.2108e+06
198.99982 -320.7022 938.0 4.2108e+06
203.93373 -320.7022 938.0 4.2108e+06
209.31296 -321.386 940.0 4.2108e+06
214.25734 -321.386 940.0 4.2108e+06
218.73535 -320.7022 938.0 4.2108e+06
223.66922 -320.7022 938.0 4.2108e+06
229.09056 -321.386 940.0 4.2108e+06
234.03496 -321.386 940.0 4.2108e+06
238.97934 -321.386 940.0 4.2108e+06
243.40474 -320.7022 938.0 4.2108e+06
248.86812 -321.386 940.0 4.2108e+06
254.6226 -322.4117 943.0 4.2108e+06
259.58276 -322.4117 943.0 4.2108e+06
264.54294 -322.4117 943.0 4.2108e+06
268.64572 -321.386 940.0 4.2108e+06
273.59012 -321.386 940.0 4.2108e+06
278.53455 -321.386 940.0 4.2108e+06
283.47897 -321.386 940.0 4.2108e+06
288.42334 -321.386 940.0 4.2108e+06
293.36774 -321.386 940.0 4.2108e+06
298.3121 -321.386 940.0 4.2108e+06
303.2566 -321.386 940.0 4.2108e+06
308.20096 -321.386 940.0 4.2108e+06
314.14474 -322.4117 943.0 4.2108e+06
319.1049 -322.4117 943.0 4.2108e+06
324.0651 -322.4117 943.0 4.2108e+06
329.0253 -322.4117 943.0 4.2108e+06
333.9855 -322.4117 943.0 4.2108e+06
338.94565 -322.4117 943.0 4.2108e+06
343.9058 -322.4117 943.0 4.2108e+06
349.97583 -323.4374 946.0 4.2108e+06
354.95187 -323.4374 946.0 4.2108e+06
359.9278 -323.4374 946.0 4.2108e+06
365.6752 -324.1212 948.0 4.2108e+06
369.8797 -323.4374 946.0 4.2108e+06
374.85562 -323.4374 946.0 4.2108e+06
379.83167 -323.4374 946.0 4.2108e+06
385.62115 -324.1212 948.0 4.2108e+06
390.6076 -324.1212 948.0 4.2108e+06
395.59406 -324.1212 948.0 4.2108e+06
399.7354 -323.4374 946.0 4.2108e+06
404.71146 -323.4374 946.0 4.2108e+06
410.55356 -324.1212 948.0 4.2108e+06
415.54 -324.1212 948.0 4.2108e+06
420.52646 -324.1212 948.0 4.2108e+06
425.51297 -324.1212 948.0 4.2108e+06
430.49948 -324.1212 948.0 4.2108e+06
435.48596 -324.1212 948.0 4.2108e+06
440.4724 -324.1212 948.0 4.2108e+06
445.45886 -324.1212 948.0 4.2108e+06
449.49503 -323.4374 946.0 4.2108e+06
453.02982 -322.4117 943.0 4.2108e+06
457.99 -322.4117 943.0 4.2108e+06
-509.44855 -315.22128 908.0 4.2108e+06
-505.7841 -315.91562 910.0 4.2108e+06
-498.79532 -314.52698 906.0 4.2108e+06
-494.02972 -314.52698 906.0 4.2108e+06
-487.64407 -313.4855 903.0 4.2108e+06
-481.8248 -312.7912 901.0 4.2108e+06
-478.14456 -313.4855 903.0 4.2108e+06
-472.34628 -312.7912 901.0 4.2108e+06
-467.607 -312.7912 901.0 4.2108e+06
-462.86774 -312.7912 901.0 4.2108e+06
-459.14542 -313.4855 903.0 4.2108e+06
-454.39566 -313.4855 903.0 4.2108e+06
-449.64584 -313.4855 903.0 4.2108e+06
-444.8961 -313.4855 903.0 4.2108e+06
-441.60855 -314.52698 906.0 4.2108e+06
-436.84302 -314.52698 906.0 4.2108e+06
-433.0313 -315.22128 908.0 4.2108e+06
-429.1985 -315.91562 910.0 4.2108e+06
-423.47913 -315.22128 908.0 4.2108e+06
-419.62527 -315.91562 910.0 4.2108e+06
-414.83868 -315.91562 910.0 4.2108e+06
-410.0521 -315.91562 910.0 4.2108e+06
-405.26547 -315.91562 910.0 4.2108e+06
-400.47888 -315.91562 910.0 4.2108e+06
-395.6923 -315.91562 910.0 4.2108e+06
-390.90567 -315.91562 910.0 4.2108e+06
-387.39203 -316.9571 913.0 4.2108e+06
-382.5896 -316.9571 913.0 4.2108e+06
-377.78726 -316.9571 913.0 4.2108e+06
-372.98483 -316.9571 913.0 4.2108e+06
-368.1825 -316.9571 913.0 4.2108e+06
-364.17612 -317.65143 915.0 4.2108e+06
-359.36322 -317.65143 915.0 4.2108e+06
-354.55032 -317.65143 915.0 4.2108e+06
-349.73743 -317.65143 915.0 4.2108e+06
-344.9245 -317.65143 915.0 4.2108e+06
-340.1116 -317.65143 915.0 4.2108e+06
-335.2987 -317.65143 915.0 4.2108e+06
-330.4858 -317.65143 915.0 4.2108e+06
-325.6729 -317.65143 915.0 4.2108e+06
-320.86002 -317.65143 915.0 4.2108e+06
-316.04712 -317.65143 915.0 4.2108e+06
-311.23422 -317.65143 915.0 4.2108e+06
-306.42133 -317.65143 915.0 4.2108e+06
-302.59726 -318.6929 918.0 4.2108e+06
-297.76862 -318.6929 918.0 4.2108e+06
-291.9826 -317.65143 915.0 4.2108e+06
-288.11124 -318.6929 918.0 4.2108e+06
-283.2826 -318.6929 918.0 4.2108e+06
-278.4539 -318.6929 918.0 4.2108e+06
-273.6252 -318.6929 918.0 4.2108e+06
-268.79654 -318.6929 918.0 4.2108e+06
-263.96783 -318.6929 918.0 4.2108e+06
-259.70374 -319.38724 920.0 4.2108e+06
-254.86453 -319.38724 920.0 4.2108e+06
-250.02534 -319.38724 920.0 4.2108e+06
-245.18616 -319.38724 920.0 4.2108e+06
-239.82443 -318.6929 918.0 4.2108e+06
-234.99579 -318.6929 918.0 4.2108e+06
-230.66852 -319.38724 920.0 4.2108e+06
-225.82935 -319.38724 920.0 4.2108e+06
-220.99016 -319.38724 920.0 4.2108e+06
-216.15094 -319.38724 920.0 4.2108e+06
-211.31174 -319.38724 920.0 4.2108e+06
-206.47252 -319.38724 920.0 4.2108e+06
-201.63335 -319.38724 920.0 4.2108e+06
-196.79416 -319.38724 920.0 4.2108e+06
-191.95494 -319.38724 920.0 4.2108e+06
-187.11574 -319.38724 920.0 4.2108e+06
-181.88028 -318.6929 918.0 4.2108e+06
-177.43735 -319.38724 920.0 4.2108e+06
-172.59816 -319.38724 920.0 4.2108e+06
-167.75894 -319.38724 920.0 4.2108e+06
-162.91974 -319.38724 920.0 4.2108e+06
-158.08052 -319.38724 920.0 4.2108e+06
-153.74104 -320.4287 923.0 4.2108e+06
-148.88606 -320.4287 923.0 4.2108e+06
-143.56293 -319.38724 920.0 4.2108e+06
-138.72374 -319.38724 920.0 4.2108e+06
-133.88454 -319.38724 920.0 4.2108e+06
-129.04533 -319.38724 920.0 4.2108e+06
-124.61117 -320.4287 923.0 4.2108e+06
-119.75617 -320.4287 923.0 4.2108e+06
-114.9012 -320.4287 923.0 4.2108e+06
-109.68853 -319.38724 920.0 4.2108e+06
-104.849335 -319.38724 920.0 4.2108e+06
-100.336266 -320.4287 923.0 4.2108e+06
-95.68816 -321.12302 925.0 4.2108e+06
-90.626305 -320.4287 923.0 4.2108e+06
-85.77131 -320.4287 923.0 4.2108e+06
-80.916336 -320.4287 923.0 4.2108e+06
-76.22618 -321.12302 925.0 4.2108e+06
-71.360664 -321.12302 925.0 4.2108e+06
-66.49517 -321.12302 925.0 4.2108e+06
-61.629658 -321.12302 925.0 4.2108e+06
-56.764168 -321.12302 925.0 4.2108e+06
-51.89868 -321.12302 925.0 4.2108e+06
-47.185703 -322.1645 928.0 4.2108e+06
-42.304432 -322.1645 928.0 4.2108e+06
-37.423138 -322.1645 928.0 4.2108e+06
-32.541866 -322.1645 928.0 4.2108e+06
-27.57118 -321.12302 925.0 4.2108e+06
-22.705662 -321.12302 925.0 4.2108e+06
-17.8016 -320.4287 923.0 4.2108e+06
-12.946602 -320.4287 923.0 4.2108e+06
-8.091634 -320.4287 923.0 4.2108e+06
-3.243679 -321.12302 925.0 4.2108e+06
1.6218086 -321.12302 925.0 4.2108e+06
6.487358 -321.12302 925.0 4.2108e+06
11.352846 -321.12302 925.0 4.2108e+06
16.270933 -322.1645 928.0 4.2108e+06
21.152203 -322.1645 928.0 4.2108e+06
26.03347 -322.1645 928.0 4.2108e+06
30.914799 -322.1645 928.0 4.2108e+06
35.873215 -322.85883 930.0 4.2108e+06
40.765003 -322.85883 930.0 4.2108e+06
45.656788 -322.85883 930.0 4.2108e+06
50.548576 -322.85883 930.0 4.2108e+06
55.619267 -323.9003 933.0 4.2108e+06
60.526836 -323.9003 933.0 4.2108e+06
65.224 -322.85883 930.0 4.2108e+06
69.965004 -322.1645 928.0 4.2108e+06
75.007576 -322.85883 930.0 4.2108e+06
79.89943 -322.85883 930.0 4.2108e+06
85.064735 -323.9003 933.0 4.2108e+06
89.972305 -323.9003 933.0 4.2108e+06
94.879875 -323.9003 933.0 4.2108e+06
99.78744 -323.9003 933.0 4.2108e+06
104.695076 -323.9003 933.0 4.2108e+06
109.60263 -323.9003 933.0 4.2108e+06
114.5102 -323.9003 933.0 4.2108e+06
119.41777 -323.9003 933.0 4.2108e+06
124.32533 -323.9003 933.0 4.2108e+06
128.81743 -322.85883 930.0 4.2108e+06
134.14053 -323.9003 933.0 4.2108e+06
139.04811 -323.9003 933.0 4.2108e+06
143.95567 -323.9003 933.0 4.2108e+06
148.86325 -323.9003 933.0 4.2108e+06
153.77086 -323.9003 933.0 4.2108e+06
158.67844 -323.9003 933.0 4.2108e+06
163.586 -323.9003 933.0 4.2108e+06
168.49358 -323.9003 933.0 4.2108e+06
173.40114 -323.9003 933.0 4.2108e+06
178.30876 -323.9003 933.0 4.2108e+06
183.21634 -323.9003 933.0 4.2108e+06
188.1239 -323.9003 933.0 4.2108e+06
193.03148 -323.9003 933.0 4.2108e+06
197.93904 -323.9003 933.0 4.2108e+06
202.84666 -323.9003 933.0 4.2108e+06
208.19958 -324.59464 935.0 4.2108e+06
213.11768 -324.59464 935.0 4.2108e+06
217.56938 -323.9003 933.0 4.2108e+06
222.47694 -323.9003 933.0 4.2108e+06
227.872 -324.59464 935.0 4.2108e+06
232.79008 -324.59464 935.0 4.2108e+06
237.70818 -324.59464 935.0 4.2108e+06
242.62625 -324.59464 935.0 4.2108e+06
247.54436 -324.59464 935.0 4.2108e+06
253.27254 -325.6361 938.0 4.2108e+06
258.20642 -325.6361 938.0 4.2108e+06
263.1403 -325.6361 938.0 4.2108e+06
268.07416 -325.6361 938.0 4.2108e+06
273.00803 -325.6361 938.0 4.2108e+06
277.94193 -325.6361 938.0 4.2108e+06
282.8758 -325.6361 938.0 4.2108e+06
287.8097 -325.6361 938.0 4.2108e+06
292.74353 -325.6361 938.0 4.2108e+06
297.67743 -325.6361 938.0 4.2108e+06
302.61133 -325.6361 938.0 4.2108e+06
307.54523 -325.6361 938.0 4.2108e+06
312.47906 -325.6361 938.0 4.2108e+06
317.41293 -325.6361 938.0 4.2108e+06
323.03412 -326.3304 940.0 4.2108e+06
327.97858 -326.3304 940.0 4.2108e+06
332.21463 -325.6361 938.0 4.2108e+06
337.14847 -325.6361 938.0 4.2108e+06
342.08234 -325.6361 938.0 4.2108e+06
347.0162 -325.6361 938.0 4.2108e+06
352.7006 -326.3304 940.0 4.2108e+06
357.64496 -326.3304 940.0 4.2108e+06
363.74655 -327.3719 943.0 4.2108e+06
367.53375 -326.3304 940.0 4.2108e+06
372.47812 -326.3304 940.0 4.2108e+06
377.42258 -326.3304 940.0 4.2108e+06
382.36694 -326.3304 940.0 4.2108e+06
388.54745 -327.3719 943.0 4.2108e+06
393.5076 -327.3719 943.0 4.2108e+06
398.46777 -327.3719 943.0 4.2108e+06
403.428 -327.3719 943.0 4.2108e+06
409.6874 -328.4134 946.0 4.2108e+06
414.66336 -328.4134 946.0 4.2108e+06
418.3085 -327.3719 943.0 4.2108e+06
423.26868 -327.3719 943.0 4.2108e+06
426.86658 -326.3304 940.0 4.2108e+06
433.1891 -327.3719 943.0 4.2108e+06
438.14926 -327.3719 943.0 4.2108e+06
443.1094 -327.3719 943.0 4.2108e+06
446.6441 -326.3304 940.0 4.2108e+06
450.62775 -325.6361 938.0 4.2108e+06
454.10458 -324.59464 935.0 4.2108e+06
-508.32642 -319.2925 906.0 4.2108e+06
-501.89346 -318.23523 903.0 4.2108e+06
-497.14365 -318.23523 903.0 4.2108e+06
-492.3939 -318.23523 903.0 4.2108e+06
-486.56403 -317.5304 901.0 4.2108e+06
-481.8248 -317.5304 901.0 4.2108e+06
-477.08554 -317.5304 901.0 4.2108e+06
-472.34628 -317.5304 901.0 4.2108e+06
-467.607 -317.5304 901.0 4.2108e+06
-461.32654 -316.47314 898.0 4.2108e+06
-458.12848 -317.5304 901.0 4.2108e+06
-453.38925 -317.5304 901.0 4.2108e+06
-448.64996 -317.5304 901.0 4.2108e+06
-443.9107 -317.5304 901.0 4.2108e+06
-440.14627 -318.23523 903.0 4.2108e+06
-435.3965 -318.23523 903.0 4.2108e+06
-430.64676 -318.23523 903.0 4.2108e+06
-427.3119 -319.2925 906.0 4.2108e+06
-422.54633 -319.2925 906.0 4.2108e+06
-417.78076 -319.2925 906.0 4.2108e+06
-413.01523 -319.2925 906.0 4.2108e+06
-408.24966 -319.2925 906.0 4.2108e+06
-403.4841 -319.2925 906.0 4.2108e+06
-398.71854 -319.2925 906.0 4.2108e+06
-394.8226 -319.99734 908.0 4.2108e+06
-390.04654 -319.99734 908.0 4.2108e+06
-386.11908 -320.7022 910.0 4.2108e+06
-381.3325 -320.7022 910.0 4.2108e+06
-376.54587 -320.7022 910.0 4.2108e+06
-370.9422 -319.99734 908.0 4.2108e+06
-366.16614 -319.99734 908.0 4.2108e+06
-362.18607 -320.7022 910.0 4.2108e+06
-357.39948 -320.7022 910.0 4.2108e+06
-352.61288 -320.7022 910.0 4.2108e+06
-347.8263 -320.7022 910.0 4.2108e+06
-343.03967 -320.7022 910.0 4.2108e+06
-338.25308 -320.7022 910.0 4.2108e+06
-332.73358 -319.99734 908.0 4.2108e+06
-327.95752 -319.99734 908.0 4.2108e+06
-323.89328 -320.7022 910.0 4.2108e+06
-320.1587 -321.75943 913.0 4.2108e+06
-314.32007 -320.7022 910.0 4.2108e+06
-309.53348 -320.7022 910.0 4.2108e+06
-304.7469 -320.7022 910.0 4.2108e+06
-299.96027 -320.7022 910.0 4.2108e+06
-295.17368 -320.7022 910.0 4.2108e+06
-290.3871 -320.7022 910.0 4.2108e+06
-285.60046 -320.7022 910.0 4.2108e+06
-281.73965 -321.75943 913.0 4.2108e+06
-276.93726 -321.75943 913.0 4.2108e+06
-272.1349 -321.75943 913.0 4.2108e+06
-267.33252 -321.75943 913.0 4.2108e+06
-261.66748 -320.7022 910.0 4.2108e+06
-257.72775 -321.75943 913.0 4.2108e+06
-252.92534 -321.75943 913.0 4.2108e+06
-248.12297 -321.75943 913.0 4.2108e+06
-243.85362 -322.4643 915.0 4.2108e+06
-239.04071 -322.4643 915.0 4.2108e+06
-234.22781 -322.4643 915.0 4.2108e+06
-229.41489 -322.4643 915.0 4.2108e+06
-224.602 -322.4643 915.0 4.2108e+06
-219.78912 -322.4643 915.0 4.2108e+06
-215.68103 -323.52155 918.0 4.2108e+06
